ncols    481
nrows    31
xllcorner    506235
yllcorner    217515.000087
cellsize    100.000000
NODATA_value    -9999
-9999	-9999	-9999	-9999	-9999	-9999	-9999	-9999	-9999	-9999	-9999	-9999	-9999	-9999	-9999	-9999	-9999	-9999	165.44	164.2	163.56	163.03	161.01	157.98	146.33	143.74	141.03	129.15	127.68	125.94	125.21	123.4	119.51	116.17	112.22	108.51	104.95	104.2	104.18	106.88	107.31	109.53	109.83	113.35	108.19	108.27	126.62	124.67	138.87	152.87	155.46	156.97	156.82	157.57	157.66	157.88	157.9	157.82	158.09	159.22	160.76	162.2	162.53	162.03	160.42	158.85	158.08	156.16	155.02	153.61	152.4	150.26	148.05	144.08	142.57	144.65	145.73	145.31	145.09	147.29	149.22	150.77	149.98	148.41	147.75	146.29	144.21	141.47	138.83	135.11	132.77	129.36	123.33	117.35	108.36	102.04	100.63	105.18	115.85	127.75	136.51	138.67	139.16	138.76	137.87	138.09	138.42	138.53	137.97	136.29	136.7	135.83	135.86	134.99	133.77	130.92	132.26	130	127.22	123.34	120.1	116.86	114.77	113.52	110.84	106.41	104.24	99.4	90.6	84.89	86.21	94.7	101.46	103.66	105.55	111.61	112.94	112.41	115.92	116.26	111.2	116.08	120.69	121.86	123.18	122.34	123.14	126.62	127.69	127.77	127.65	127.23	126.89	127.29	127.75	127.87	127.41	126.9	127.47	127.51	128.05	128.34	128.18	127.41	126.14	126.4	126.65	126.9	126.13	125.61	125.35	125.07	125.13	125.51	125.83	125.78	125.01	123.99	122.16	121.69	121.23	120.63	119.52	117.64	113.94	109.26	105.61	101.8	97.44	94.88	92.72	90.34	88.01	88.55	88.64	87.38	85.48	83.68	79.9	77.07	76.97	83.1	90.47	88.91	88.03	83.18	82.73	89.74	89.45	86.34	83.83	81.86	81.38	77.6	74.06	70.72	72.96	73.53	70.57	67.05	62.44	63.92	62.7	73.78	70.18	64.02	60.76	62.24	73.86	80.65	81.22	82.35	81.91	78.83	74.89	71.34	74.08	79.34	85.8	90.71	92.27	94.63	102.03	108.3	108.9	107.44	109.25	106.95	105.42	102.17	94.31	89.21	85.91	86.35	81.27	87.23	91.19	94.52	99.89	102.6	101.31	98.64	98.83	94.35	87.42	82.58	78.11	74.17	68.86	65.36	71.99	84.15	99.29	103.02	102.15	94.79	102.45	107.53	100.46	94.1	95.26	102.49	107.47	113.1	114.58	118.86	119.43	120.44	120.49	119.61	118.76	116.96	113.13	109.52	106.87	107.83	111.39	110.77	106.29	100.54	101.06	108.55	106.14	112.89	109.92	112.48	113.12	110.75	108.31	100.73	94.48	91.33	89.59	96.28	106.92	111.53	111.98	111.77	110.6	109.79	108.39	106.03	97.14	91.01	83.36	77.71	73.89	72.29	69.23	62.61	59.57	60.83	64.95	71.53	76.26	75.37	75.7	79.72	82.95	85.49	88.85	93.35	96.69	98.41	100.34	99.75	99.76	101.93	104.11	104.62	104.13	101.6	98.45	93.29	89.26	86.75	85.42	84.18	85.51	84.46	81.84	77.64	74.28	74.54	73.3	74.26	71.21	64.47	59.92	66.64	77.06	84.52	87.18	91.59	92.23	91.79	90.61	88.96	88.37	86.24	84.73	80.76	75.78	74.89	75.18	72.77	72.35	76.08	78.9	81.49	83.61	85.77	87.24	88.1	88.96	90	91.24	91.73	90.08	88.03	88.43	88.18	89.77	91.26	92.41	93.36	93.54	94.53	95.71	95.89	95.93	96.01	93.33	92.07	90.83	89.92	88.76	87.4	85.48	84.03	81.21	80.01	76.67	73.29	70.71	69.43	67.46	60.85	58.36	56.47	56.84	59.62	68.45	72.69	76.52	80.12	82.78	83.23	83.76	83.12	81.19	77.15	73.58	70.92	71.69	80.87	83.23	84.76	84.35	85.67	86.35	86.25	88.29	90.66	91.02	90.46	90.8	91.95	91.67	92.55	92.68	92.72	93.39	93.74	94.45	95.42	95.38	94.74	94.59	96.84	97.76	97.97	95.78	92.49	89.09	87.09	88.59	91.38	91.44	90.89	90.64
-9999	-9999	-9999	-9999	-9999	-9999	-9999	-9999	-9999	-9999	-9999	-9999	-9999	-9999	-9999	-9999	-9999	-9999	-9999	165.37	164.73	163.99	162.05	154.69	156.98	155.8	148.38	136.56	134.01	134.68	133.27	130.65	125.82	120.63	114.59	111.6	107.67	104.7	107.31	106.99	104.32	106.18	106.42	103.6	113.76	107.51	128.43	131.74	144.61	149.22	153.4	154.25	154.76	155.16	155.81	155.99	156.63	156.66	156.75	159.28	160.77	161.8	161.62	160.44	159.25	157.64	156.69	156.61	155.43	153.26	152.29	151.04	148.72	146.57	147.87	149.16	149.26	148.77	148.41	150.27	150.6	150.1	148.97	146.94	146.21	144.62	143.56	142.82	139.79	137.63	134.33	130.15	125.39	120.6	113.75	107.78	102.73	100.44	111.58	125.15	132.25	135.43	135.38	134.74	133.65	134.62	136.06	137.45	136.68	134.69	133.77	133.06	132.35	130.7	130.21	125.78	129.1	127.89	126.42	124.28	120.99	117.87	115.68	113.84	111.67	108.74	105.36	101	93.47	84.99	84.74	92.01	97.49	98.39	100.55	106.97	108.23	107.3	109.48	107.93	108.91	117.46	120.24	120.42	119.65	119.96	123.97	126.82	127.16	126.75	126.23	126.31	127.2	126.6	126.08	125.69	125.21	124.65	124.98	125.92	126.2	125.88	125.8	125.18	124.35	124.6	125.32	126.4	127.38	127.09	125.91	126.32	126.68	126.86	126.7	126.38	125.55	123.69	121.56	120.93	120.29	118.79	119.07	115.92	111.66	106.19	101.83	98.56	94.68	92.74	90.09	87.71	85.4	84.74	83.9	81.55	82.41	80.36	79.3	84.13	82.69	93.12	95.63	93.25	88.92	83.15	86.44	92.56	94.53	88.76	85.55	84.31	80.04	76.02	73.78	72.64	77.77	76.34	73.84	69.54	68.84	65.05	63.28	63.43	63.66	63.06	60.21	60.91	77.27	80.78	82	82.17	79.85	77.73	72.54	69.46	75.47	78.27	82.45	88.54	88.21	93.31	99.14	102.7	101.65	103.98	105.91	103.73	100.68	98.62	94.45	90.71	84.58	79.05	87.32	93.39	94.05	98.74	102.32	104	101.35	101.14	99.11	93.72	88.1	82.39	77.38	72.07	66.48	65.63	76.01	88.44	98.5	99.81	97.62	89.37	97.41	99.97	93.53	91.1	97.82	104.16	110.55	114.26	117.94	119.48	118.65	118.04	118.79	118.83	117.95	116.3	112.07	108.27	104.88	106.22	112.17	111.25	107.24	100.04	94.23	96.54	99.48	106.95	105.39	106.18	107.36	107.54	108.13	104.41	100.3	92.3	87.51	91.09	101.52	107.53	109.3	112.13	112.29	110.39	100.03	100.75	96.2	91.27	83.95	77.88	72.06	68.72	66.02	62.19	58.86	66.77	76.51	78.2	79.54	77.97	76.39	80.1	85.09	87.11	91.02	93.65	96.23	97.74	98.37	97.63	99.95	101.84	102.29	102.07	101.37	101.29	98.26	95.11	92.57	88.64	85.19	82	79.33	82.35	80.51	75.18	70.9	68.68	70.7	73.12	68.66	61.87	63.53	69.94	79.51	85.18	89.59	91.33	90.66	89.32	89.12	88.21	88.27	87.29	85.57	82.59	78.28	71.71	70.85	71.6	75.95	79.28	82.14	83.66	86.19	88.32	89.67	90.61	91.22	91.93	91.9	92.21	91.35	90.46	90.33	90.65	91.47	91.81	93.23	93.35	94.08	95.27	96.08	95.82	95.32	94	92.13	90	88.13	87.85	87.52	86.37	84.47	82.76	80.5	77.59	76.56	75.63	74.95	73.12	68.53	60.91	58.58	56.85	56.48	58.6	67.22	70.54	74.63	78.8	81.76	82.32	82.83	82.66	81.06	76.77	71.59	66.14	74.55	80.74	81.86	80.94	84.21	86.51	86.92	86.6	87.96	88.25	87.41	88.18	89.97	91.09	92.89	93.64	93.67	93.61	93.55	93.78	94.64	94.26	94.41	94.36	93.72	94.96	96.82	96.58	95.28	92.76	90.05	86.84	87.14	90.7	91.04	90.88	89.63
-9999	-9999	-9999	-9999	-9999	-9999	-9999	-9999	-9999	-9999	-9999	-9999	-9999	-9999	-9999	-9999	-9999	-9999	-9999	-9999	165.01	163.63	161.33	158.71	160.29	159.79	154.27	145.18	144.59	146.56	145.53	142.65	139.71	133.66	124.51	114.87	110.46	108.09	108.4	106.96	106.86	102.36	107.23	110	109.51	121.51	127.49	138.14	139.95	137.97	132.53	129.74	138.48	143.83	149.47	154.84	156.68	155.31	155.38	158.26	159.48	159.99	159.72	158.54	157.36	156.18	156.59	155.89	154.6	153.32	152.45	151.48	150.74	149.56	150.52	151.82	151.89	151.93	151.73	151.68	150.66	149.5	148.53	146.46	143.5	140.37	137.54	135.52	134.48	134.93	133.06	128.49	122.53	116.67	109.81	105.98	102.66	99.3	108.06	119.52	128.88	129.45	128.35	125.13	126.18	130.79	135.59	136.87	137.29	135.43	133.13	131.13	128.86	125.93	122.87	121.56	121.25	119.58	120.7	120.45	121.33	118.61	115.61	113	110.28	107.99	104.31	96.57	88.55	85.27	83.74	89.18	94.88	95.26	99.6	103.48	102.45	99.15	104.08	111.57	116.47	118.19	117.85	117.28	117.7	121.47	123.73	125.94	125.56	125.1	124.32	124.05	124.73	124.15	123.8	123.5	122.98	122.4	122.18	123.11	122.64	123.01	122.64	121.97	122.61	124.06	125.55	127.18	127.19	126.43	125.98	125.65	126.45	126.74	126.66	126.12	123.82	120.4	119.08	118.76	117.46	115.37	115.53	113.07	108.49	103.72	99.21	95.79	92.23	89.98	88.34	85.58	83.92	83.24	84.05	86.7	87.02	89.19	93.25	93.65	88.59	97.78	100	95.46	88.46	87.38	95.99	97.03	95.73	90.63	87.5	86.24	82.22	79.32	75.22	76.85	79.49	78.24	74.77	71.45	69.01	68.35	67.62	65.68	63.24	61.19	59.23	61.86	76.98	77.18	80.91	79.78	78.41	74.84	70.04	68.81	73.51	75.33	80.37	85.42	86.33	90.76	94	96.3	96.32	102.49	103.47	101.04	94.84	93.69	90.36	87.37	80.93	81.04	91.25	95.93	97.23	101.86	103.28	104.13	102.94	103.15	98.18	90.66	88.14	81.49	78.62	72.65	65.39	66.53	75.21	85.94	94.84	95.48	91.08	85.8	88.04	89.41	88.17	97.41	103.78	108.67	112.96	116.54	118.21	118.3	115.96	114.97	117.51	117.65	116.92	115.73	111.23	106.83	103.24	107.48	113.4	112.44	107.06	105.78	101.33	93.18	93.34	101.73	97.95	98.84	97.7	99.37	101.13	99.52	98.18	91.56	84.86	87.72	97.33	98.47	106.69	110.9	110.73	110.12	104.31	92.2	85.28	85.56	78.21	68.31	65.54	61.67	60.98	58.6	61.82	70.85	79.38	82.27	82.63	82.37	80.28	79.62	84.86	88.64	91.59	94.14	95.85	96.9	95.93	96.1	99.39	100.21	99.83	99.22	98.92	99.64	98.99	96.86	93.45	89.8	86.43	84.39	80.87	78.08	75.82	74.31	73.57	70.51	65.62	69.42	65.83	60.55	62.26	73.25	82.44	87.03	89.93	90.5	89.11	87.76	87.02	87.95	87.87	86.79	84.01	79.54	75.64	70.32	72.44	76.87	80.26	81.92	83.9	85.79	87.61	89.83	91.01	91.69	92.39	92.96	93.02	92.61	92.24	92.71	92.5	92.29	92.5	92.68	94.02	93.97	94.91	95.64	95.45	95.12	93.92	92.39	90.63	88.19	85.86	85.97	86.39	85.61	84.62	83.76	82.45	80.73	78.47	76.21	74.3	70.59	62.47	60.11	58.58	57.1	56.76	59.06	64.94	69.17	74.86	77.36	78.44	81.53	81.74	81.54	80.18	74.24	67.5	69.24	77.52	78.71	79.7	79.87	81.61	84.44	85.19	83.93	84.36	84.73	86.02	89.59	91.99	92.82	94.01	94.69	94.63	94.54	94.22	93.6	92.99	92.66	92.82	92.97	93.74	94.42	95.35	95.82	94.62	93.25	90.26	87.29	85.63	88.32	90.81	90.72	89.16
-9999	-9999	-9999	-9999	-9999	-9999	-9999	-9999	-9999	-9999	-9999	-9999	-9999	-9999	-9999	-9999	-9999	-9999	-9999	-9999	-9999	163.16	162.81	161.87	162.21	161.37	158.1	150.18	153.63	155.36	154.28	152.52	148.59	140.07	125.17	118.16	112.75	112.92	111.88	107.38	113.93	107.66	111.49	113.29	110.96	113.04	119.75	123.04	128.65	122.16	124.82	141.65	152.58	156.31	157.41	157.8	156.53	154.61	154.68	157.5	157.83	158.24	158.05	156.87	155.69	155.92	155.71	155.03	154.29	153.53	152.18	151.38	151.6	151.51	151.94	151.86	152.31	152.66	152.66	152.16	150.73	150.01	149.59	148.76	146.46	145.02	142.41	135.37	130.11	130.08	123.86	120.78	116.22	117.24	115.33	110.96	105.15	98.77	104.08	116.34	121.91	120.03	117.69	127.5	133.8	135.11	136.75	137.81	138.46	137.32	135.48	134.04	132.59	130.64	128.44	124.53	121.72	118.04	113.12	115.55	117.8	116.27	113.14	110.26	105.75	101.59	96.86	90.32	91.06	87.07	84.35	84.07	88.24	91.33	92.65	94.46	95.62	103.38	113.26	115.42	115.82	116.09	114.25	115.47	119.93	120.97	122.09	124.23	123.96	123.19	122.42	121.79	121.99	121.71	121.51	121.3	120.73	120.15	119.58	119.55	120.14	121.29	120.3	121.52	123.2	124.05	125.22	126.08	126.03	124.89	123.74	122.83	124.25	125.56	127.01	125.96	123.56	122.01	117.23	114.94	114.68	111.19	110.72	109.84	105.45	100.83	96.02	91.88	89.51	88.37	87.29	88.18	88.14	88.28	91.83	95.15	98.63	101.48	103.46	101.05	95.1	103.21	102.8	97.7	92.28	92.06	103	103.99	100.6	95.47	92.38	91.05	87.82	81	79.41	82.31	80.57	76.75	74.12	73.74	71.29	72.58	72.27	69.84	64.76	66.84	62.34	59.81	69.01	71.09	72.31	73.35	73.84	71.58	67.42	70.24	76.81	78.55	80.58	80.88	82.65	86.65	89.1	88.97	94.78	99.96	101.19	99.5	94.29	87.85	83.89	81.45	76.2	80.8	88.68	95.74	101.05	103.76	105.1	104.62	104.74	103.94	100.67	95.22	89.77	83.99	79.6	73.04	65.76	64.9	72.17	83.43	92.65	89.62	81.58	79.2	83.26	88.09	93.66	98.88	103.74	112.1	115.07	116.85	117.69	116.51	114.17	112.21	115.09	114.91	114.25	113.14	110.14	105.44	100.52	107.49	113.56	113.51	112.8	108.97	100.47	97.22	91.07	93.5	91	89.19	91.66	88.74	85.63	95.45	94.64	88.45	82.43	87.6	95.01	103.57	108.8	109.36	106.77	107.45	104.67	95.04	81.71	75.4	69.18	58.99	58	57.77	57.46	58.38	68.37	76.03	81.09	83.26	84.47	85.18	84.27	81.43	83.22	87.99	91.41	94.01	95.89	95.13	93.47	95.68	98.65	99.11	98.39	97.64	96.06	97.34	97.62	96.66	95.5	93.32	89.26	84.5	85.29	85.78	81.95	78.44	75.16	71.08	66.54	62.52	62.42	59.82	61.2	73.78	82.76	85.18	87.86	89.04	87.49	86.07	83.76	86.06	86.24	85.47	82.63	78.22	71.25	69.46	78.67	74.33	79.71	82.27	83.71	85.39	87.24	88.81	90.33	91.25	92.24	92.88	93.35	93.44	94.03	93.77	93.25	93.18	93.58	93.45	94.07	94.2	94.82	94.68	94.51	93.82	92.86	91.88	90.49	88.16	85.44	83.4	83.7	84.29	84.11	83.05	82.05	80.25	78.08	75.56	71.04	65.01	66.6	63.06	57.52	57.26	56.63	59.05	64.53	70.03	72.85	74.57	76.91	80.67	81.26	80.67	78.93	75.26	67.95	69.5	74.88	74.77	79.54	76.47	77.7	80.05	81.41	80.35	80.39	82.08	86.45	89.53	91.97	93.57	94.48	95.15	95.43	94.46	94.26	93.45	92.09	89.98	91.16	92.67	94.22	94.87	95.57	95.53	94.84	93.94	91.15	88.46	84.1	85.56	88.24	90.09	89
-9999	-9999	-9999	-9999	-9999	-9999	-9999	-9999	-9999	-9999	-9999	-9999	-9999	-9999	-9999	-9999	-9999	-9999	-9999	-9999	-9999	-9999	163.34	163.7	163.45	162.38	160.91	154.43	157.6	159.42	158.43	155.08	145.39	136.52	137.33	127.93	118.61	118.25	115.75	109.56	105.44	100.78	105.43	109.95	107.71	104.74	105.74	107.93	113.26	114.22	133.93	149.03	155.83	157.98	158.56	157.63	156	152.78	154.05	156.31	156.36	156.32	156.16	155.21	155.01	154.93	154.73	153.52	152.64	151.82	150.95	149.68	151.52	151.85	151.63	151.6	152.05	152.15	152.15	151.72	151.06	150.69	150.29	149.64	148.24	146.59	144.91	141.47	133.69	131.42	129.51	125.93	127.21	123.75	118.9	113.17	106.09	99.44	102.14	114.5	113.79	113.85	124.19	134.34	136.83	136.75	136.63	138.59	139.71	138.29	138.07	137.28	136.46	134.88	133.22	130.22	127.19	122.85	116.78	109.59	106.79	106	104.68	102.53	97.6	97.57	97.86	102.02	101.32	94.17	86.34	82.99	84.53	88.07	94.78	100.83	107.04	111.18	114.37	113.06	112.91	110.56	115.54	118.03	119.99	120.67	121.61	121.53	121.2	120.63	119.98	119.58	119.37	119.35	119.16	119.06	118.69	118.57	119.33	119.85	120.19	121.17	122.21	122.99	123.48	123.34	123.51	124.26	124.2	123.15	122.15	121.3	122.29	125.1	127.56	126.4	124.37	119.35	118.46	115.94	109.5	107.66	104.35	104.61	102.94	98.26	93.74	92.02	91.66	89.44	90.06	90.85	90.4	92.55	97.5	101.49	105.92	108.06	109.27	105.83	102.46	106.14	106.21	102.02	97.39	94.6	105.35	108.05	105.27	101.47	95.3	91.43	85.75	81.65	87.87	84.56	79.84	79.39	78.54	76.19	74.68	74.52	73.72	68.23	72.56	71.54	64.87	59.02	63.25	64.91	66.31	68.73	68.15	68.65	69.23	70.26	74.32	77.85	77.9	77.01	77.85	82.36	83.12	84.98	91.91	96.71	98.6	98.21	95.29	89.6	83.08	76.5	75.6	82.87	93.42	98.95	102.55	104.87	106.31	105.46	105.6	103.89	100.65	95.65	89.62	83.46	76.79	71.78	66.8	63.88	69.8	83.23	88.21	80.71	76.94	81.32	84.01	93.17	103.18	109.53	108.99	107.5	112.82	116.13	116.27	114.24	111.03	109.38	111.32	111.17	110.88	109.48	106.31	103.15	98.63	109.45	114.03	113.95	113.06	108.32	107.21	99.73	96.57	87.4	85.72	86.49	92.35	83.43	82.21	91.25	91.38	86.52	81.07	91.55	101.48	108.67	109.18	108.29	104.18	98.47	102.96	95.65	84.75	74.87	59.22	58.19	58.13	60.43	63.94	66.65	70.68	74.76	79.78	83.1	84.9	86.39	86.22	83.23	82.82	86.59	89.94	93.27	94.43	93.57	91.49	94.93	96.87	96.97	96.11	95.14	95.43	95.16	95.85	97.12	96.51	93.91	89.58	89.02	89.19	87.27	83.36	78.56	75.13	71.55	67.53	62.88	60.32	58.81	59.92	72.4	79.48	81.23	86.31	87.63	86.65	84.35	82.49	84.74	84.37	82.68	79.55	73.01	68.45	78.68	81.56	81.12	80.54	80.23	81.88	82.83	85.09	86.9	88.72	90.23	91.23	92.43	93.1	93.75	94.67	94.61	94.05	93.84	93.3	93.24	93.57	93.54	93.26	93.37	92.9	92.15	91.18	90.25	90.08	88.11	85.38	82.73	81.03	82.11	82.9	82.16	80.34	78.4	76.68	73.51	67.24	67.93	72.65	67.27	57.99	56.79	57.41	56.81	59.17	67.01	69.93	71.23	75.64	79.59	81.14	79.92	77.07	74.51	67.11	64.32	67.33	78.56	70.69	72.96	74.86	76.6	77.78	81.23	83.72	85.04	85.85	88.27	91.44	93.38	94.44	95.07	95.02	94.94	94.35	93.64	91.55	88.82	90.82	93.09	95.13	95.3	95.49	95.05	94.81	94.64	92.45	89.4	84.82	83.25	85.79	88.58	88.59
-9999	-9999	-9999	-9999	-9999	-9999	-9999	-9999	-9999	-9999	-9999	-9999	-9999	-9999	-9999	-9999	-9999	-9999	-9999	-9999	-9999	-9999	-9999	164.57	162.87	161.92	162.55	160.31	160.74	160.45	158.69	152.31	151.06	149.23	140.59	130.48	127.88	128.7	121.74	114.57	107.28	103.22	100.09	104.95	101.93	100.07	100.04	102.92	106.66	119.83	137.63	147.81	154.13	155.42	156.22	157.65	156.85	154.31	148.86	153.22	152.22	154.52	154.37	154.1	153.99	153.95	153.57	152.15	150.95	149.92	148.57	147.43	149.61	151.26	151.24	151.18	150.86	151.02	151.33	150.91	150.26	149.9	149.43	148.8	147.74	146.48	144.92	142	139.55	137.41	135.58	132.54	131.89	127.44	121.96	115.02	107.85	100.44	100.85	108.73	107.31	116.64	125.07	133.02	138.43	138.87	137.84	139.81	140.23	139.97	139.7	138.91	137.52	136.56	135.48	133.45	129.02	123.57	120.02	117.21	113.23	109.97	107.11	105.59	106.93	109.83	107.23	104.92	101.44	98.26	92.42	82.91	82.91	88.42	96.46	108.71	110.7	110.74	109.48	108.19	107.77	109.74	116.54	118.97	120.04	120.56	120.23	119.37	118.33	118.01	116.83	116.21	115.86	113.98	117.1	118.3	118.68	120.33	121.79	122.45	122.79	123.42	123.62	123.56	122.26	121.06	121.57	122.31	122.58	121.44	120.54	122.69	125	126.75	128.16	126.91	126.21	122.63	116.24	112.68	110.2	103.56	100.72	99.39	96.67	94.45	95.25	94.43	92.73	89.81	93.32	93.5	93.78	95.41	100.98	106.17	110.41	112.34	112.79	109.58	107.8	111.11	110.15	107.51	100.04	97.96	105.78	109.99	109.08	105.79	100.93	92.39	85.7	90.9	92.7	86.73	83.02	83.72	80.89	78.86	80.32	77.52	73.84	68.76	74.1	72.78	68.01	63.33	59.16	58.49	59.89	62.29	63.37	63.02	62.89	62.5	63.83	72.88	73.43	73.18	76.05	78.42	79.48	84.88	90.24	93.43	95.08	95.13	93.35	88.58	82.23	76.55	72.83	84.78	96.76	102.77	105.17	106.06	107.27	107.47	106.86	104.06	99.08	93.37	88.92	83.68	78.4	73.52	68.48	63.54	68.62	80.95	80	76.95	85.1	87.3	91.37	89.88	98.45	110.5	112.86	112.43	113.62	116.15	115.3	112.89	109.05	104.14	104.05	106.59	102.94	104.93	103.01	98.55	99.35	108.07	113.73	114.09	114.39	112.09	111.26	108.12	105.65	100.39	97.42	98.38	93.24	88.69	81.43	81.59	87.87	82.59	79.42	91.42	102.57	105.68	106.83	106.46	104.14	94	93.52	91.64	84.51	68.55	57.97	59.45	63.67	64.81	66.03	67.66	70.04	77.58	81.29	83.2	86.42	87.94	87.76	85.7	85.5	87.18	90.1	92.86	92.97	91.59	90.53	93.41	95.04	94.67	93.58	93.24	93.6	93.63	95.36	96.5	97.25	94.11	92.22	91.83	90.73	87.5	83.11	78.67	74.98	71.42	68.32	62.87	60.16	58.43	59.74	67.46	75.23	81.66	85.56	86.14	84.63	81.68	80.98	82.43	81.69	80.41	74.05	68.64	77.12	81.63	82.7	84.88	84.77	84.45	84.59	85.36	87.37	89.11	90.45	90.7	91.12	92.29	93.13	94.14	94.33	94.45	94.17	93.61	92.79	92.45	92.17	91.87	92.06	91.31	90.8	90.23	88.76	88.48	88.62	88.28	86	82.76	79.81	79.33	79.91	79.2	77.61	75.65	72.95	69.63	69.1	72.98	74.49	70.08	61.26	57.36	57.62	54.19	56.02	61.02	65.11	69.26	74.34	78.28	79.28	79.09	77.28	73.62	67.11	64.4	71.45	75.35	76.15	78.41	79.87	81.28	83.07	85.19	86.82	87.87	87.98	88.95	91.27	93.15	94.31	95.12	94.95	93.47	92.89	91.85	89.87	88.33	90.75	92.83	93.47	94.68	94.29	94.22	94.47	94.45	92.8	89.6	86.03	83.26	83.3	85.3	87.31
-9999	-9999	-9999	-9999	-9999	-9999	-9999	-9999	-9999	-9999	-9999	-9999	-9999	-9999	-9999	-9999	-9999	-9999	-9999	-9999	-9999	-9999	-9999	-9999	-9999	-9999	162.57	162.09	161.7	160.47	158.1	156.53	156.68	151.31	145.29	148.18	144.06	135.6	132.9	124.1	112.04	104.1	101.6	100.65	100.75	100.63	100.15	100.89	106.67	118.68	134.3	141.29	147.51	152.15	155.4	158.06	158.22	155.98	148.7	146.32	147.62	152.02	152.38	150.96	153.65	153.54	153.3	151.87	150.29	148.5	146.81	146.47	148.95	150.51	150.71	150.28	149.89	149.97	150.51	149.93	149.14	148.43	147.7	147.05	146.19	145.26	144.71	144.31	142.01	140.54	138.81	137.41	134.61	130.25	125.01	118.23	110.94	103.13	97.28	100.26	107.56	113.33	117.39	128.42	136.68	139.4	139.45	139.73	139.87	139.95	139.8	139.48	138.04	137.41	136.26	134.58	130.65	127.66	126.53	123.65	120.44	119	118.79	116.98	116.29	114.67	110.69	106.21	103.25	98.2	91.06	85.23	82.22	85.62	94.33	106.12	107.35	104.13	99.75	104.04	109.56	115.35	118.71	120.45	120.18	120.21	119.63	117.73	116.25	115.28	113.93	110.94	115.18	116.36	117.01	117.43	120.07	122.64	123.74	123.5	123.4	123.37	123.31	123.21	120.77	117.5	117.08	119.11	119.08	119.52	121.54	124.12	127.08	128.83	129.4	127.73	126.45	123.11	118.19	110.83	105.24	104.61	108.9	104.69	100.21	98.58	96.54	96.33	91.99	90.93	93.39	94.27	98	99.24	101.87	106.75	112.86	114.57	115.12	113.61	112.66	113.48	112.39	108.51	106.11	107.07	105.99	110.35	110.34	107.16	99.77	90.98	93.56	94.93	91.13	86.75	88.42	85.79	82.98	84.59	82.22	78	72.12	70.24	75.69	72.97	70.29	67.84	65.13	63.53	62.48	60.15	58.06	62.14	59.67	58.41	57.3	66.46	66.64	72.77	75.32	78.02	81.12	83.44	86.89	88.25	91.55	92.32	90.48	85.67	80.88	74.42	71.66	81.31	98.77	105.67	108.24	108.16	108.93	108.37	106.8	103.95	97.67	91.51	86.55	83.73	77.46	71.9	67.87	63.18	69.81	77.59	72.25	81.81	92.58	95.72	97.18	100.81	94.49	99.01	104.13	109.12	114.4	116.56	116.18	114.48	110.18	106.5	101.33	97.8	97.99	98.38	99.26	94.98	102.94	113.41	114.64	114.42	114.16	113.96	113.32	112.63	109.69	107.11	103.52	98.42	93.44	89.58	84.56	80.84	77.89	78.75	81	91.24	97.61	94.54	98.23	101.32	98.76	93.11	84.49	86.48	81.8	70.49	57.48	58.99	62.44	64.59	66.51	67.89	70.88	79.84	82.25	84.96	87.33	89.73	89.68	88.76	88.98	90.14	91.7	92.4	91.43	89.56	90.19	91.54	92.81	92.73	91.28	90.63	91.34	92.7	94.83	96.32	97.29	96.27	94.57	92.45	90.03	86.96	82.99	78.54	75.31	72.36	69.23	64.1	59.75	57.77	57.13	62.93	76.94	81.56	85.43	85.53	82.83	79.68	79.95	80.47	78.68	75.08	70.08	70.44	80.92	81.98	83.78	84.53	86.34	87.32	86.18	85.74	89.58	90.91	91.41	90.53	92.53	93.57	94.06	93.76	93.35	93.24	93.23	92.26	90.62	90.61	91.12	89.95	89.63	89.46	88.44	87.85	86.65	87.75	89.21	88.48	84.9	82.15	80.25	76.58	76.95	74.63	73.12	70.76	68.63	71.81	75.54	75.93	75.37	73.86	64.15	58.51	56.58	54.52	53.57	55.27	59.07	67.04	74.92	76.79	78.09	77.87	76.88	73.91	67.02	62.28	73.75	75.53	77.08	79.07	81.68	84.23	85.62	87.45	88.55	89.4	90.1	90.48	92.28	94.06	94.69	95.05	94.65	92.99	90.84	90.07	88.16	88.33	90.72	91.25	91.91	93.21	92.46	93.1	95.08	94.37	92.96	90.22	87.48	84.25	83.26	83.25	84.35
-9999	-9999	-9999	-9999	-9999	-9999	-9999	-9999	-9999	-9999	-9999	-9999	-9999	-9999	-9999	-9999	-9999	-9999	-9999	-9999	-9999	-9999	-9999	-9999	-9999	-9999	-9999	162.11	161.06	160.11	159.64	159.78	159.3	156.29	156.71	153.77	151.98	148.23	141.83	133.54	122.28	111.08	107.43	109.87	105.82	102.38	100.61	100.33	104.45	110.83	119.75	127.83	140.62	152.93	157.82	158.72	157.97	156.14	152.45	146.16	139.66	147.64	148.94	147.97	152.62	153.65	153.09	151.68	150.39	148.46	146.65	146.88	148.89	149.53	149.63	149.49	149.62	149.62	149.63	148.95	148.15	147.33	146.49	145.56	143.1	143.36	143.63	143.37	143.32	141.81	140.42	138.79	135.37	131.54	127.58	121.66	115.58	109.02	100.68	96.58	99.96	104.42	112.1	122.29	133.75	137.87	139.38	139.36	139.26	139.17	139.47	139.01	137.87	136.73	135.73	134.64	132.7	130.11	128.07	125.96	124.18	123.44	122.67	121.76	120.1	117.51	113.48	109.28	104.29	101.88	98.27	89.6	83.23	83.26	91.48	100.4	99.08	97.41	107.46	113.17	116.29	118.71	120.65	120.73	120.07	119.67	119.1	116.37	114.45	111.39	109.64	115.78	119.55	120.37	119.94	119.46	121.77	122.88	123.47	122.74	122.61	122.53	122.35	121.94	120.42	116.93	118.87	118.78	119.73	121.44	124.56	127.08	128.95	129.77	129.01	127.07	124.21	120.81	116.47	110.71	109.3	114.15	113.11	107.76	102.7	99.55	97.59	95.59	91.74	92.32	96.27	100.46	104.07	104.85	105.86	109.01	112.87	115.7	116.49	116.34	115.56	115.91	115.49	113.48	113.74	113.18	111.78	112.79	111	106.72	96.96	101.86	102.35	96.45	91.18	92.6	90.83	88.79	87.75	86.09	83.51	78.64	72.67	75.05	78.88	77.02	73.5	70.65	67.75	64.5	62.5	61.83	60.36	58.08	59.21	57.44	56.75	60.98	68.45	72.7	76.21	80.31	83.36	82.88	83.74	85.93	88.89	89.48	86.38	81.49	78.91	73.04	70.67	80.92	97.21	106.62	108.04	109.21	110.74	107.6	105.81	101.74	95.76	89.73	83.54	80.18	79.83	75.46	66.54	62.83	69.01	71.55	74.52	85.56	96.06	105.48	109.5	109.7	100.9	104.78	108.18	111.55	115.24	116.78	116.32	115.56	113.08	110.31	105.86	101.27	97.15	93.23	94.98	94.97	107.35	113.75	113.67	112.91	112.39	112.97	113.25	112.17	109.19	102.27	98.67	93.71	89.91	86.34	83.71	87.36	79.14	73.96	79.22	82.79	84.84	83.04	88.66	93.21	91.54	88.09	83.56	77.39	77.21	70.13	58.3	57.66	61.15	65.2	67.59	69.08	72.3	78.28	82.51	85.36	88.37	91.38	92.21	91.67	91.98	92	92.01	91.55	89.62	87.64	88.25	89.27	89.46	89.14	88.44	89.26	90.45	92.71	95.02	96.39	97.11	96.82	94.2	89.62	87.02	84.58	81.28	78.16	75.3	72.63	69.73	64.44	59.29	58.25	57.14	58.01	77.71	82.31	84.06	83.03	80.24	77.55	78.63	77.98	75.01	68.97	68.12	78.48	79.55	80.71	82.52	84.24	86.66	87.78	88.15	88.26	89.48	92.01	92.24	91.74	92.77	94.45	93.86	93.08	91.38	91.46	91.24	90.68	89.71	88.66	89.06	88.13	88.05	85.77	85.99	85.33	85.28	87.74	88.06	87.84	84.92	81.72	80.13	77.36	76.32	76.12	75.27	75.25	76.23	77.68	77.35	77.51	75.97	73.93	67.81	61.95	57.68	55.14	53.73	54.74	56.14	64.28	71.47	76.12	76.68	76.34	74.31	72.21	65.84	62.13	69.13	71.73	73.84	77.05	81.04	83.87	85.35	87.64	88.3	89.74	90.71	91.47	92.35	93.2	93.86	93.76	93.56	91.82	89.67	87.09	85.74	88.65	88.23	89.38	90.46	91.68	92.34	92.95	94.7	94.07	92.37	90.23	87.79	84.42	83.04	81.66	83.86
-9999	-9999	-9999	-9999	-9999	-9999	-9999	-9999	-9999	-9999	-9999	-9999	-9999	-9999	-9999	-9999	-9999	-9999	-9999	-9999	-9999	-9999	-9999	-9999	-9999	-9999	-9999	-9999	-9999	160.16	160.61	161.54	161.64	161.92	159.45	158.57	146.91	149.78	143.99	135.81	129.11	118.76	112.43	108.45	106.28	103.3	100.52	99.89	104.32	111.25	124.93	138.19	149.66	155.49	157.15	157.41	155.79	154.04	151.35	148.05	142.62	136.31	139.88	146.21	151.22	152.45	151.86	150.72	149.47	148.4	145.82	146.73	147.78	148.07	148.75	149.62	149.69	149.63	148.87	148.1	147.32	146.54	145.7	144.88	143.51	142.62	137.2	140.07	141.03	141.04	139.99	138.31	135.42	132.06	128.87	124.12	119.07	114.15	108.43	100.97	95.78	98.56	107.02	119.35	133.42	137.13	138.08	138.03	137.66	137.82	138.5	138.17	135.6	133.81	134.21	133.15	131.48	129.52	127.62	125.9	124.79	123.7	123.11	123.34	122.15	119.87	116.58	112.19	106.75	100.63	95.52	88.23	83.14	82.23	85.77	88.97	93.51	105.7	111.31	114.19	117.31	119.24	119.51	119.03	118.46	118.5	118.4	116.8	112.44	106.78	115.95	119.68	119.91	121.21	121.75	121.87	122.17	122.59	121.96	121.11	120.12	120.06	120.13	120.09	118.09	116.18	119.99	122.15	123.93	125.59	127.26	128.91	129.96	130.45	129.28	125.98	120.84	118.25	113.63	110.12	115.22	117.21	113.69	107.07	102.37	99.06	96.5	94.2	93.47	95.84	100.42	105.35	110.19	112.26	112.44	112.68	113.68	114.29	115.92	115.21	114.96	116.26	118.18	117.97	118.28	117.84	116.09	115.21	110.94	104.52	105.18	106.49	104.38	100.48	98.63	97.4	94.59	91.41	88.95	86.93	83.83	79.83	72.42	78.77	80.71	79.28	76.4	74.73	73.67	70.36	66.01	64.34	64.74	63.72	63.1	62.12	59.67	56.8	65.07	66.24	70.16	74.9	80.41	81.36	80.06	83.23	85.82	86.47	83.7	80.03	76.13	70.08	71.76	86.46	99.7	103.37	104.21	108.55	109.3	106.81	103.25	98.53	92.88	89.5	87.34	85.44	81.05	73.81	64.1	62.27	64.77	67.51	75.63	85.69	93.61	105.08	112.08	111.67	105.96	108.31	114.67	114.71	116.85	116.57	116.44	115.75	114.35	112.23	108.25	102.48	96.07	90.68	90.73	100.85	110.98	112.12	111.68	111.11	110.29	109.92	110.71	109.44	106.58	100.43	95.46	90.28	87.17	83.21	80.88	79.34	78.41	73.73	73.15	74.29	74.53	77.8	80.8	83.63	83.49	82.6	82.42	76.61	69.93	65.26	60.2	57.31	63.16	73.43	72.21	72.82	75.42	78.97	83.92	86.81	89.76	92.79	94.05	94.02	92.88	91.78	90.25	89.47	87.8	86.26	87.7	88.48	88.67	88.22	89.42	90.37	92.49	94.17	95.67	96.93	97.62	96.67	93.83	88.73	84.07	80.5	77.46	75.4	75.06	72.15	68.46	63.98	59.43	58.49	58.4	56.58	77.61	80.59	82.49	79.95	77.04	75.59	76.77	76.8	71.88	65.46	70.85	76.84	81.37	81.65	83.67	85.64	87.19	88.65	89.75	90.1	90.2	92.54	91.01	90.85	92.84	94.43	93.62	92.19	90.28	89.63	89.03	88.51	87.13	86.83	85.95	85.78	87.54	84.35	84.24	83	84.21	86.48	87.22	88	86.04	84.1	82.95	82.11	81.78	81.62	81.29	80.92	81.22	79.73	78.34	76.18	75.06	74.2	67.59	62.46	58.73	55.94	54.5	53.76	55.24	61.6	72.43	74.83	74.7	74.85	74.29	66.17	60.79	63.82	64.1	65.69	72.63	77.63	81.11	83.3	84.99	86.91	88.35	87.31	89.07	90.86	91.29	92.18	92.69	92.4	91.54	89.35	87.46	84.68	85.55	87.96	88.9	88.49	88.87	90.15	92.33	93.12	93.75	92.41	91.23	88.68	86.93	81.41	81.65	80.22	84.21
-9999	-9999	-9999	-9999	-9999	-9999	-9999	-9999	-9999	-9999	-9999	-9999	-9999	-9999	-9999	-9999	-9999	-9999	-9999	-9999	-9999	-9999	-9999	-9999	-9999	-9999	-9999	-9999	-9999	-9999	-9999	163.11	163.26	163.08	161.55	158.8	155.73	148.65	141.85	132.35	121.28	114.96	112.22	110.34	109.92	104.26	99.52	97.43	104.16	115.31	119.11	141.19	149.29	153.83	155.27	154.82	152.31	150.04	147.65	143.52	139.59	131.73	132.04	145.07	149.89	150.64	149.98	149.13	148.05	146.32	144.37	146.15	146.45	146.66	148.55	149.43	149.49	148.72	147.96	147.19	146.47	145.73	144.92	144.1	143.73	143.18	141.01	133.07	134.54	136.92	137.54	136.04	133.29	131.17	127.91	124.63	120.36	116.13	111.73	106.26	96.52	95.69	106.54	120.76	132.34	136.09	136.97	136.96	136.62	136.47	136.94	136.99	134.32	130.83	131.33	131.17	129.41	127.38	126.32	125.13	124.22	123.13	122.49	123.13	123.47	121.53	119.89	115.96	110.87	103.79	97.45	89.45	82.78	81	84.18	94.43	103.54	108.68	110.49	112.27	115	116.93	117.28	116.83	116.85	116.93	116.54	115.57	107.28	111.55	119.48	120.93	121.02	121.55	121.89	121.88	121.23	120.02	118.84	117.93	116.45	115.99	117.4	117.68	114.79	117.83	122.1	125.36	127.22	128.98	129.73	130.34	130.82	130.55	128.62	126.09	122.83	119.75	114.07	118.02	120.38	117.74	112.26	105.29	102	99.31	96.22	93.28	93.55	97.33	102.96	108.42	114.41	117.53	117.54	116.82	115.21	113	112.14	112.66	113.55	116.44	119.17	120.44	120.72	120.24	119.3	115.96	109.39	109.46	108.54	107.8	106.08	104.85	102.57	99.78	96.19	92.36	88.35	84.06	82.26	79.18	73.13	81.19	83.09	79.69	77.38	77.62	79.1	78.12	77.85	76.14	73.74	67.54	69.19	61.73	60.11	56.35	61.85	60.4	59.78	66.67	72.48	76.15	76.34	79.46	82.37	82.93	81.46	78.55	73.49	66.91	77.22	88.06	95.27	95.33	101.64	105.9	105.65	104.3	100.13	95.84	93.25	91.79	87.73	81.78	75.15	71.51	63.02	62.53	67	70.55	74.76	81.63	87.91	99.02	109.5	112.41	112.59	113.65	115.01	116.47	116.32	116.02	115.12	114.78	115.13	115.35	108.82	103.2	97.08	91.57	88.37	106.61	111.46	110.69	107.23	107.08	107.35	105.83	106.64	104.58	101.79	98.57	92.17	88.31	83.25	79.98	87.67	78.73	77.8	79.73	76.16	72.96	71.75	70.19	71.52	73.33	76.27	77.94	78.07	72.56	65.91	62.46	58.9	58.02	73.56	78.61	79.84	79.14	81.7	85.48	87.33	89.02	91.94	93.71	94.25	94.45	92.76	90.24	88.2	86.95	85.51	84.62	86.53	86.89	86.96	89.53	91.13	92.33	94.06	95.94	97.06	97.57	97.31	95.53	92.23	88.26	84.15	79.93	76.24	74.19	72.55	69.53	67.25	63.04	58.8	57.99	56.25	59.92	78.56	79.34	80.33	77.85	75.05	73.25	74.35	73.24	67.81	67.18	72.19	76.01	82.73	86.07	85.27	87.08	87.82	89.91	90.42	90.72	90.93	91.31	92.43	91.13	93	93.22	93.27	91.64	90.2	89.81	89.37	89.04	88.68	88.34	86.99	85.83	85.47	83.36	82.21	81.55	82.76	85.12	87.32	88.68	87.7	87.02	84.78	83.9	84.21	83.49	82.76	82.23	82.21	80.86	77.52	74.15	73.39	71.25	67	62.25	58.99	58.63	55.43	54.27	54.79	57.12	71.27	71.58	73.37	70.87	63.84	61.25	67.12	70.93	71.61	66.1	72.29	77.59	79.56	81.69	83.94	85.82	85.98	86.87	88.21	88.53	88.67	89.14	90.01	89.61	87.76	86.78	84.85	83.28	87.02	89.7	89.46	88.67	88.46	89.81	92.03	92.9	92.47	90.91	88.77	86.38	84.38	81.7	79.42	81.67	85.27
-9999	-9999	-9999	-9999	-9999	-9999	-9999	-9999	-9999	-9999	-9999	-9999	-9999	-9999	-9999	-9999	-9999	-9999	-9999	-9999	-9999	-9999	-9999	-9999	-9999	-9999	-9999	-9999	-9999	-9999	-9999	-9999	164.47	164.12	161.41	154.33	153.49	143.65	132.5	123.69	123.69	124.8	120.64	115.67	110.9	104.67	99.22	97.62	102.72	112.28	124.65	134.67	144.72	149.73	151.89	151.26	148.56	143.13	140.05	137.65	133.4	128.98	131.99	145.36	149.48	149.1	148.04	147.19	145.84	144.68	142.81	144.8	145.27	146.03	148.1	148.59	148.65	147.93	147.06	146.26	145.54	144.43	144.05	142.25	141.36	141.96	140.73	137.28	128.96	127.5	132.03	130.11	130.63	127.55	125.12	122.41	118.53	114.69	110.65	104.17	95.42	96.21	111.48	123.66	130.24	133.66	135.5	136.79	136.56	135.96	133.93	131.2	130.12	128.29	127.65	128.7	126.52	124.35	123.38	122.03	121.46	121.13	121.83	122.41	122.23	120.92	119.48	117.07	112.99	106.41	98.87	90.65	82.64	80.56	86.82	97.89	102.93	106.23	107.26	109.99	111.94	113.91	115.06	113.87	113.52	113.28	113.96	112.83	103.7	113.14	119.4	120.9	121.29	121.33	120.16	119.68	117.5	116.7	114.89	110.58	110.09	110.53	113.79	113.5	116.62	120.67	124.2	127.59	128.96	129.87	130.37	130.08	130.48	130.22	128.56	124.73	121.28	116.46	117.23	121.36	121.16	115.88	111.85	111.33	107.02	101.19	97.21	95.1	94.33	97.56	104.24	110.46	116.09	118.53	118.7	117.88	116.08	113.56	109.91	111.67	113.81	117.48	119.84	121.59	122.44	121.88	120.03	116.29	114.97	113.71	111.1	109.78	107.12	105.49	103.26	99.05	95.97	91.8	88.99	85.75	81.93	76.01	78.35	84.94	85.02	81.73	79.77	80.36	80.7	80.76	79.22	76.67	72.68	72.25	73.73	66.27	60.19	59.23	57.31	57.38	54.8	55	63.38	72.46	74.13	76.98	78.65	78.91	78.94	76.42	71.57	64.82	73.63	81.03	83.97	96.29	101.63	103.01	103.03	100.37	96.65	93.97	94.01	93.78	89.83	84.47	78.44	70.76	62.96	63.09	69.62	79.06	81.17	81.18	84.53	93.07	101.34	107.99	111.94	114.56	115.47	115.65	115.34	114.48	112.9	114.05	115.25	113.9	107.41	101.87	96.09	90.55	86.19	103.82	109.67	106.76	106.18	101.81	103.23	100.05	100.95	99.16	97.48	94.86	90.37	87.19	82.52	81.88	86.26	83.6	81.67	82.87	80.4	77.62	78.17	73.11	71.17	67.69	66.46	66.33	64.64	63.64	61.1	59.24	56.23	67.74	80.33	81	83.59	84.43	86.89	88.63	90.01	91.32	92.11	93.54	94.36	94.61	92.25	89.25	86.63	85.11	84.61	83.35	84.41	86.4	88.01	89.96	91.35	92.46	94.69	96.48	97.69	96.99	96	92.91	90.15	86.94	83.39	78.77	76.61	75.5	73.1	68.2	66.68	62.54	57.55	56.74	57.23	75.46	78.31	78.69	79.38	75.81	74.51	71.26	70.21	68.69	64.48	71.09	75.21	79.7	83.37	85.74	88.17	87.71	88.85	90.56	91.81	91.24	91.95	92.73	92.53	92.32	92.59	92.62	92.32	92.4	91.66	91.41	91.02	91.11	90.9	90.88	89.15	86.52	86.76	85.48	81.67	81.85	81.44	83.4	86.85	88.66	88.39	87.14	84.91	83.86	83.27	83.14	82.91	82.95	82.09	80.76	77.13	74.53	70.44	68.32	64.01	58.65	58.69	58.8	55.36	54.82	54.22	58.89	70.16	69.39	67.09	63.27	60.21	67.23	72.85	74.49	75.03	67.65	69.82	75.88	76.16	77.52	79.53	81.86	84.52	84.02	84.74	85.14	84.87	85.55	86.01	85.96	85.1	84.44	82.81	83.92	87.61	89.3	89.8	88.33	88.25	89.73	91.72	92.3	91.92	89.6	86.32	83.19	82.48	81.34	78.88	80.68	83.73
-9999	-9999	-9999	-9999	-9999	-9999	-9999	-9999	-9999	-9999	-9999	-9999	-9999	-9999	-9999	-9999	-9999	-9999	-9999	-9999	-9999	-9999	-9999	-9999	-9999	-9999	-9999	-9999	-9999	-9999	-9999	163.91	164.32	163.64	158.04	158.62	147.77	136.68	134.84	137.56	136.61	134.04	126.59	118.58	112.97	107.19	101.68	97.65	99.82	105.08	113.48	126.82	137.09	143.24	146.34	144.99	142.75	135.3	130.29	131.32	125.07	123.13	137.55	149.6	149.93	148.8	146.61	145.18	142.69	142.08	141.56	144.36	144.3	144.62	146.99	147.29	147.54	147.25	146.39	145.77	144.01	142.19	143.44	142.04	138.12	139.06	138.8	136.35	132.05	124.87	123.15	122.43	123.03	121.54	119.79	118.82	115.93	112.21	107.62	101.5	94.47	97.64	113.88	125.23	126.69	131.3	133.86	134.76	134.61	133.28	132.04	127.79	125	123.89	123.21	126.11	123.63	121.43	120.17	119.41	118.84	118.95	119.9	120.4	120.06	118.81	117.66	117.21	113.37	107.16	100.53	92.73	84.33	80.26	84.11	92.92	95.37	101.59	102.34	107.17	108.8	110.5	110.81	109.86	106.4	108.33	109.95	107	104.01	113.99	118.99	120.46	120.84	120.21	118.33	116.17	113.87	111.26	106.37	109.16	115.21	116.27	115.51	118.53	120.83	123.63	125.39	127.78	128.97	129.59	129.2	129.36	129.74	129.53	127.86	123.97	120.39	118.11	121.22	123.1	121.42	118.76	118.45	117.22	110.64	103.63	99.95	95.69	94.89	97.12	103.11	108.93	114.28	117.48	118.06	117.5	115.05	112.4	108.82	110.02	114.71	118.43	120.94	122.01	122.55	122.18	121.78	120.3	117.66	115.29	111.11	108.39	106.11	101.74	97.59	93.81	90.78	88.37	86.32	85.6	80.51	75.92	83.65	87.68	86.33	82.72	81.32	79.43	79.83	79.05	77.38	75.11	71.48	73.2	71.4	65.53	64.76	61.06	56.37	55.68	60.38	56.51	59.46	68.12	72.46	74.11	74.73	75.01	75.12	72.66	69.77	64.16	69.08	74.39	82.37	93.81	100.74	101.09	99.99	96.3	93.31	91.57	94.97	95.22	91.02	83.42	75.73	69.04	62.56	60.97	69.5	79.07	87.05	91.33	89.87	90.71	95.16	99.39	111.26	114.1	114.39	114.84	113.92	112.03	111.38	113.51	114.53	112.41	105	97.3	93.31	87.75	85.89	97.89	104.22	100.58	102.17	96.24	99.49	97.75	96.23	95.47	93.68	90.91	87.25	83.74	82.94	86.51	89.32	88.29	86.09	87.77	85.17	85.69	84.88	79.39	80.33	73.81	69.74	71.62	67.74	63.52	58.96	57.88	58.87	71.74	80.44	81.68	84.18	85.99	87.77	89.3	90.5	91.99	93.09	93.86	94.87	94.28	92.02	89.41	86.18	84.15	82.64	82.82	85.03	88.1	88.92	89.56	90.92	92.42	94.92	96.75	97.73	96.8	95.52	92.56	90.07	86.85	82.17	76.87	75.36	73.85	71.33	66.92	64.23	60.36	57.32	57.02	66.51	75.93	76.44	77.8	78.18	77.31	75.82	72.63	68	63.05	63.84	72.17	77.81	82.54	84.49	85.37	87.92	89.05	88.44	89.13	89.45	90.05	91.19	91.57	92.27	91.63	91.69	91.87	92.63	93.24	93.71	93.73	93.48	92.86	93.41	92.41	90.69	89.68	86.91	85.66	84.03	83.18	79.3	79.52	86.84	89.08	88.74	86.79	84.12	81.82	82.29	81.13	80.94	81.47	81.45	79.51	76.92	73.21	69.8	64.67	61.22	57.36	58.16	58.65	56.73	54.38	53.67	63.46	68.47	64.41	60.39	61.84	64.93	70.28	77.05	79.02	78.43	71.61	67.43	70.58	71.7	70.92	72.35	77.32	79.61	80.61	79.46	80.01	78.93	80.7	81.13	81.58	81.74	81.68	81.41	84.55	87.05	88.46	89.06	88.03	88.05	89.84	91.4	91.9	90.54	87.25	83.72	81.24	79.28	78.25	77.45	78.18	81.5
-9999	-9999	-9999	-9999	-9999	-9999	-9999	-9999	-9999	-9999	-9999	-9999	-9999	-9999	-9999	-9999	-9999	-9999	-9999	-9999	-9999	-9999	-9999	-9999	-9999	-9999	-9999	-9999	-9999	-9999	-9999	-9999	163.17	160.87	159.71	153.96	142.23	148.29	148.25	148.25	144.4	138.73	129.76	121.64	114.1	109.24	105.32	100.59	97.43	100.69	109.5	119.1	129.51	134.25	136.43	137.31	135.09	128.04	123.12	122.49	117.86	125.77	144.14	151.81	151.19	149.61	147.58	145.71	142.47	142.07	141.37	142.53	141.44	142.56	145.08	146	146.27	146.49	145.71	145.79	144.85	141.76	139.39	140.29	137.31	132.65	132.24	130.43	127.43	122.51	115.8	113.9	111	110.58	108.5	109.27	108.76	106.3	102.2	96.42	93.51	99.79	113.04	120.52	121.11	128.37	131.63	132.17	132.78	131.33	130.02	127.5	122.83	118.08	119.08	122.57	120.9	117.25	115.45	116.81	116.69	116.37	116.59	117.08	117.14	116.41	115.67	114.93	111.97	107.11	102.08	95.83	87.31	80.05	80.66	86.48	92.84	98.16	101.53	103.8	106.84	108.35	106.86	104.86	101.69	99.91	101.05	101.5	111.3	117.94	119.19	120.07	119.97	118.26	114.7	109.91	107.43	104.18	109.92	115.35	116.75	116.57	117.71	120.58	122.83	123.94	124.81	125.97	126.7	126.71	126.56	126.09	129.13	128.91	127.66	125.85	121.75	124.4	125.77	125.07	125.24	124.38	123.2	120.39	115.02	108.4	102.03	97.34	95.46	96.13	101.51	106.55	111.67	114.86	113.13	112.57	111.57	109.18	108.5	110.98	116.45	119.37	121.06	121.74	122.5	121.98	121.42	120.5	118.28	115.43	111.24	103.56	100.67	98.15	95.1	91.11	86.85	84.65	83.19	78.97	77.36	79.6	84.94	88.56	86.38	83.64	81.32	78.83	78.49	77.67	76.06	76.28	75.95	71.89	69.66	68.64	67.66	70.61	67.03	64.04	61.43	56.86	59.79	67.82	68.38	70.38	72.07	71.57	71.12	69.34	65.99	63.03	70.81	82.53	90.26	96.58	99.47	99.63	96.9	93.42	90.13	92.1	95.67	95.1	90.33	83.24	76.15	68.22	62.12	60.55	66.93	75.9	83.35	90.97	101.84	104.71	107.36	108.84	111	112.64	113.35	113.98	113.54	111.42	109.98	112.11	111.57	107.59	100.82	94.46	88.4	84	88.78	96.03	94.03	95.96	94.51	93.48	96.69	95.28	93.66	92.21	90.74	87.53	84.02	83.48	86.76	90.47	91.48	91.31	91.39	92.7	92.89	93	91.39	88.35	86.26	81.29	76.62	81.19	79.08	71.71	60.16	56.88	63.81	75.68	82.52	82.94	84.46	86.1	87.06	87.31	89.83	91.53	93.23	94.02	94.16	93.39	91.17	88.65	85.64	83.54	81.86	82.43	85.36	87.45	87.58	89.38	91.2	92.87	95.12	96.72	96.77	96.19	94.49	90.89	87.42	84.57	81.96	77.24	75.41	72.69	71.09	68.4	62.29	57.13	54.93	55.21	70.46	74.07	76.6	77.28	77.74	76.89	74.41	71.44	65.85	62.17	63.06	73.18	80.99	84.36	86.87	84.99	88.33	88.27	88.15	87.01	87.2	88.68	89.27	90.57	90.8	90.34	90.45	91.53	92.61	92.5	93.77	94.69	94.6	94.24	93.96	92.47	91.97	90.92	88.58	86.11	84.67	84.7	82.98	78.36	86.71	89.01	88.05	86.22	83.56	79.99	78.85	78.25	79.55	80.48	80.03	78.3	75.95	73.33	67.47	62.83	58.25	56.87	54.75	54.13	52.86	54.23	59.9	66.18	65.25	58.94	67.78	69.25	70.87	76.51	81.17	81.65	80	75.17	68.69	68.99	71.1	74.38	74.38	70.99	74.46	75.69	75.57	75.57	75.57	75.56	76.55	77.25	78.78	79.09	80.35	82.93	85.3	86.29	87.31	87.52	87.93	89.38	90.85	91.53	90.99	88.01	84.52	82	80.69	79.61	77.89	75.6	79.03
-9999	-9999	-9999	-9999	-9999	-9999	-9999	-9999	-9999	-9999	-9999	-9999	-9999	-9999	-9999	-9999	-9999	-9999	-9999	-9999	-9999	-9999	-9999	-9999	-9999	-9999	-9999	-9999	-9999	-9999	-9999	-9999	162.34	161.46	158.84	152.26	152.16	155.6	155.16	151.96	146.54	139.61	130.54	122.19	117	112.16	107.07	101.14	98.66	97.43	105.16	111.83	118.15	125.34	127.14	128.94	127.13	120.58	114.51	113.68	120.01	138.75	152.29	152.74	151.87	150.44	148.94	147.38	144.81	141.99	140.54	140.23	139.6	141.86	143.45	144.71	144.98	145.17	145.46	145.49	145	143.51	138.96	134.78	131.12	128.3	126.72	123.86	121.19	118.8	118.11	117.39	114.97	111.82	108.77	104.08	101.44	99.17	98.16	94.73	92.5	99.83	110.26	111.85	116.97	124.14	128.16	129.73	130.16	128.51	127.02	125.12	122.43	117.63	114.07	119.08	117.96	114.31	110.61	113.93	114.2	111.2	112.53	113.24	113.59	113.05	112.31	112.56	110.35	106.39	103.34	97.38	88.23	81.38	80.53	86.34	97.65	102.34	102.86	103.89	105.49	104.81	101.52	97.08	95.83	103.19	107.52	111.53	115.94	117.81	118.16	119.14	118.94	117.58	114.35	111.31	103.41	101.35	112.21	115.72	116.01	114.84	118.76	119.91	121.4	121.83	122.26	123.25	123.82	123.56	122.64	125.01	128.75	129.76	128.98	127.34	127.4	127.62	127.35	126.68	126.14	125.48	125.03	123.43	119.01	112.45	103.66	98.55	99.16	95.51	99.13	103.81	107.73	109.51	107.77	105.18	104.71	107.06	110.83	113.99	117.16	119.53	121.94	121.17	121.47	121.69	120.88	119.85	118.16	113.78	110.25	105.24	104.8	105.06	99.11	95.56	92.87	90.6	87.19	80.27	84.97	86.68	88.44	88.41	84.85	82.53	80.35	80.07	79.73	78.87	77.47	76.04	74.62	74.67	75.7	73.05	70.12	71.14	68.05	63.47	59.87	56.5	63.09	65.34	63.42	66.65	68.7	69.72	67.18	64.19	61.34	68.47	78.03	86.32	92.47	95.74	97.5	97.96	94.29	89.18	84.9	90.91	93.96	93.22	88.9	82.28	77.21	72.15	64.21	59.58	63.37	71.16	78.07	92.44	104.96	106.14	107.93	110.55	111.52	109.89	112.72	113.53	112.78	110.58	108.47	107.53	107.69	105.98	100.23	95.29	88.21	81.91	87.85	91.76	87.92	89.87	90.03	91.68	94.07	92.54	90.38	89.31	88.24	86.13	86.55	87.23	89.05	92.07	93.51	94.11	94.71	95.85	96.22	95.95	94.83	92.68	89.79	87.5	83.79	83.57	81.26	73.44	61.65	56.91	63.03	73.89	80.54	83.16	84.48	84.88	85.72	87.15	89.78	91.46	93.12	93.64	92.99	92.13	89.03	86.81	85.32	83.63	81.63	81.53	84.35	85.71	86.72	89.99	92.31	94.12	95.23	96.51	96.02	95.47	94.98	92.71	89.53	86.97	84.17	81.15	78.24	76.28	73.69	70.91	64.92	57.94	54.38	56.24	69	72.98	76.3	76.69	76.35	74.7	72.02	67.64	62.76	66.24	70.14	69.24	76.77	81.42	84.05	84.32	84.64	83.22	83.6	85.37	86.74	88.69	89.4	89.73	90.51	89.47	88.98	90.9	91.77	92.36	92.28	92.62	93.17	93.09	93.44	92.63	91.31	88.59	87.26	86.26	85.68	85.12	81.44	82	87.48	88.76	87.03	84.99	80.95	79.25	76.15	75.14	77.37	78.97	78.19	76.73	75.58	72.73	66.85	60.81	56.73	55.1	52.6	52.73	54.54	57.18	64.3	65.93	61	65.69	69.07	75.01	76.54	80.1	82.31	82.41	80.25	76.06	73.71	74.13	73.05	77.48	80.89	77.3	74.51	75.95	79.29	80.2	79.99	79.33	80.17	79.94	80.37	81.67	80.82	80.52	82.16	84.18	85.39	85.37	87.38	89.07	90.39	91.27	90.65	89.06	86.47	83.98	82.57	80.62	78.01	75.64	75.22
-9999	-9999	-9999	-9999	-9999	-9999	-9999	-9999	-9999	-9999	-9999	-9999	-9999	-9999	-9999	-9999	-9999	-9999	-9999	-9999	-9999	-9999	-9999	-9999	-9999	-9999	-9999	-9999	-9999	-9999	-9999	-9999	162.66	161.81	159.97	158.57	157.63	156.9	156.25	152.86	146.83	140.19	136.38	130.47	123.28	115.83	109.42	103.8	100.47	97.43	99.33	105.2	112.69	117.99	118.76	121.69	118.72	111.24	111.1	120.33	135.53	149.49	152.66	152.67	151.75	150.7	149.44	148.57	145.66	141.54	139.66	137.73	137.85	141.68	143.4	142.89	143.01	143.92	144.58	144.61	144.83	144.51	143.02	140.82	139.47	137.71	136.21	133.88	131.63	126.89	127.48	128.22	124.85	122.31	118.92	115.68	111.6	108.41	103.91	96.74	92.06	98.08	107.39	106.44	113.54	119.02	122.12	124.94	126.06	125.29	121.92	120.19	118.48	115.34	109.95	113.79	114.99	112.19	107.28	111.27	111.69	107.89	105.53	107.1	109.9	109.67	110.23	109.82	107.14	105.08	102.2	97.02	87.6	81.05	79.61	87.66	99.33	102.8	103.08	102.57	103.87	102.96	96.78	92.55	105.52	111.73	112.71	113.98	114.96	115.32	115.15	115.63	116.12	115.72	113.83	111.18	106.23	99.32	108.33	112.29	112.59	114.32	117.41	118.47	118.36	117.22	117.18	117.96	119.09	119.44	122.92	126.05	128.69	129.51	129.71	129.6	129.41	129.04	128.38	127.42	126.38	124.89	124.75	122.86	120.15	114.59	107.19	100.58	100.33	94.48	96.98	99.5	101.5	103.7	101	100.12	106	111.28	113.35	116.32	117.03	119.2	120.63	119.86	120.09	120.58	119.92	118.85	116.81	112.57	110.65	109.38	109.21	107.03	104.01	100.01	94.31	89.89	85.18	83.75	91.1	93.45	92.24	87.78	83.86	82.3	82.59	81.78	80.15	78.78	77.97	76.98	77.7	78.11	70.44	75.26	72.11	72.53	69.2	63.05	59.19	55.23	59.78	62.3	62.05	63.35	64.09	65.17	64.45	61.71	64.29	71.13	77.9	83.92	88.21	92.7	93.57	93.07	90.99	86.43	84.52	88.3	90.73	89.76	84.05	78.47	76.37	73.51	67.03	59.51	60.25	67.78	76.65	98.13	104.39	104.87	108.08	110.36	110.25	106.37	109.87	110.7	110.16	108.51	105.33	102.37	103.89	104.69	99.69	93.9	87.88	82.1	78.45	83.18	81.79	80.97	85.55	85.3	92.88	91.31	89.79	89.22	88.57	88.6	89.74	90.56	90.52	95.45	93.62	95.26	96.75	97.79	97.65	96.61	95.05	93.75	91.4	88.95	88.12	85.8	80.55	73.23	63.3	56.7	63.08	70.31	81.25	82.56	83.8	82.47	84.81	87.28	89.14	90.4	91.51	91.53	90.81	89.98	87.08	83.44	83.92	83.58	81.06	80.74	82.19	82.76	87.54	90.36	92.89	94.93	96.18	96.18	95.78	95.73	95.2	94	90.93	87.69	84.89	81.11	77.28	75.82	74.33	71.82	67.06	60.28	53.85	55.01	64.48	72.02	75.03	75.19	74.42	71.48	68.23	63.3	62.04	71.25	74.15	75.1	73.27	78.12	80.87	80.06	79.03	80.89	82.77	85.39	87.85	89.53	89.17	89.31	89.43	88.16	87.78	89.22	90.25	90.57	91.44	91.58	92.26	93.03	92.47	90.85	89.19	86.97	85.35	84.84	84.85	84.8	82.91	80.47	84.22	89.49	89.4	85.08	80.51	77.41	76.11	72.87	75.34	76.32	75.3	74.04	73.72	71.63	66.18	60.17	56.52	52.62	53.12	54.13	54.27	56.89	60.99	59.2	56.8	69.12	71.8	76.42	79.43	81.37	82.61	75.9	78.87	76.84	77.87	78.54	77.27	78.02	83.48	83	82.68	85.61	85.91	86.69	85.71	83.77	84.49	83.85	83.55	84.08	83.54	82.9	82.87	82.71	83.25	84.18	86.77	88.87	90.17	90.98	90.78	90.07	87.53	86.42	83.22	80.08	79.26	78.69	76.42
-9999	-9999	-9999	-9999	-9999	-9999	-9999	-9999	-9999	-9999	-9999	-9999	-9999	-9999	-9999	-9999	-9999	-9999	-9999	-9999	-9999	-9999	-9999	-9999	-9999	-9999	-9999	-9999	-9999	-9999	-9999	-9999	161.99	161.13	160.45	159.42	158.23	157.54	156.91	153.73	151.19	147.37	143.35	136.58	128.34	118.46	110.51	105.25	101.34	98.04	97.43	101.08	106.39	109.78	113.21	114.11	109.52	107.27	116.75	131.24	145.88	151.29	152.04	151.63	150.65	149.44	148.36	146.52	143.36	141.51	139.27	136.38	136.95	141.42	142.53	141.73	141.53	142.9	143.7	143.87	144.1	144.38	144.12	143.8	143.19	141.88	140.62	139.15	136.08	130.17	134.32	133.77	131.67	129.09	125.15	120.66	114.75	109.25	102	95.53	91.84	95.27	102.55	103.03	108.46	111.48	116.28	118.07	120.08	120.97	116.94	115.09	113.46	112.1	108.85	110.37	112.23	109.94	104.1	106.4	108.56	107.08	101.22	101.53	103.36	104.56	106.57	108.16	105.92	103.36	99.46	95.71	85.69	80.54	79.81	89.52	99.05	99.56	99.58	102.16	100.08	98.39	90.46	96.66	108.43	111.59	112.13	112.07	111.52	110.96	111.42	111.97	112.87	113.34	112.95	111.35	107.86	100.09	99.29	107.33	108.16	111.9	114.23	114.66	114.22	109.9	112.74	116.62	119.03	122.58	124.71	127.4	128.61	129.44	129.61	129.72	129.43	128.74	127.76	126.03	124.47	123.23	121.48	120.23	118.37	114.04	108.18	101.35	97.51	95.63	94.58	96.33	98.42	99.52	97.53	101.25	106.45	110.7	113.09	115.33	116.23	117.53	118.4	118.24	117.37	117.51	117.95	117.6	117.64	115.27	113.28	112.04	110.8	108.67	104.17	98.56	92.23	87.3	84.29	88.78	94.2	95.62	92.48	88.32	84.26	86.3	84.37	82.3	81.35	80.49	79.62	78.62	78.7	79.05	78.13	75.87	74.53	74.76	73.32	66.71	59.45	55.94	55.15	57.82	59.07	58.81	59.32	58.56	55.7	54.3	65.01	70.18	74.54	81.12	86	89.2	89.39	88.86	86.64	82.18	81.14	86.79	88.29	85.87	79.2	73.39	71.38	70.34	64.92	59.39	59.38	66.88	78.37	96.63	102.94	104.32	107.61	108.52	108.48	105.07	107	106.04	106.05	105.47	103.01	100.59	101.19	101.49	99.31	97.01	95.14	86.52	81.97	79.53	75.28	74.18	82.07	90.87	91.91	91.5	90.45	89.79	89.94	91.26	92.62	92.94	92.71	92.52	93.89	95.22	97.29	97.49	97.19	96.69	94.84	92.82	90.68	89.61	88.34	84.37	76.74	69.31	63.53	57.24	60.02	70.08	79.83	80.76	80.34	81.95	83.81	86.18	87.42	88.09	89.53	89.22	88.39	87.56	84.99	81.91	81.96	82.13	80.14	80.99	82.67	85.09	87.54	90.6	92.84	94.59	95.95	95.53	94.11	93.49	94.82	92.73	89.62	86.58	83.88	80.08	76.39	73	73.08	71.3	68.42	62.68	56.38	53.72	61.06	71.9	73.42	73.42	71.9	70.62	64.65	59.6	66.17	73.53	76.44	78.09	78.57	76.61	76.91	79.48	80.5	81.8	83.94	86.33	88.47	89.07	88.97	88.55	88.02	86.98	86.59	87.98	88.8	89.22	90.04	90.55	90.78	90.97	89.94	87.33	85.55	83.56	81.86	81.58	82.41	82.98	81.33	81.22	86.62	87.86	78.85	82.37	79.41	76.6	75.38	73.05	71.87	72.96	72.48	71.84	71.21	67.87	64.07	58.55	54.93	52.26	54.29	55.4	55.6	55.44	55.28	57.8	60.89	71.15	73.97	76.92	79.28	81.16	81.88	76.5	80.97	81.52	82.25	82.59	81.9	82.01	85.7	86.58	88.05	89.47	89.08	89.21	88.64	87.43	87.52	85.79	85.4	86.25	86.1	85.51	84.84	84.75	85.47	85.72	86.56	87.67	89.61	90.78	91.15	91.15	90.02	88.01	85.2	83.17	82.69	82.08	79.42
-9999	-9999	-9999	-9999	-9999	-9999	-9999	-9999	-9999	-9999	-9999	-9999	-9999	-9999	-9999	-9999	-9999	-9999	-9999	-9999	-9999	-9999	-9999	-9999	-9999	-9999	-9999	-9999	-9999	-9999	-9999	-9999	-9999	-9999	-9999	-9999	158.07	157.24	156.79	155.92	154.95	152.12	146.63	140.14	127.48	117.05	116.44	111.59	104.05	99.37	97.43	97.43	100.59	103.76	105.97	108.55	103.45	113.5	126.64	139.77	150.01	150.73	150.64	150.02	149.26	148.27	146.61	143.54	143.21	141.63	139.83	137.94	134.02	138.87	140.53	140.24	139.46	141.3	142.62	143.14	143.66	143.99	144.24	144.54	143.85	142.94	142.26	140.94	138.51	137.87	137.24	135.74	133.9	131.97	127.72	123.1	116.98	111.11	106.9	101.3	93.22	92.27	94.09	99.11	103.55	105.33	109.55	109.07	113.76	117.21	116	113.6	109.26	107.6	104.1	107.86	108.37	107.31	102.36	102.01	105.34	104.12	99.99	96.26	98.27	100.28	104.73	106.44	104.55	101.81	99.71	96.92	86.26	80.05	79.37	89.76	94.64	94.44	100.73	102.48	98.54	93.05	88.54	100.45	108.96	109.82	109.58	109.21	108.51	107.79	107.48	107.89	109.47	111.42	112.3	111.94	111.02	106.69	95.89	98.24	106.58	108.77	109.8	107.99	105.65	110.91	120.29	122.31	123.09	124.53	125.73	127.09	128.17	129.17	129.32	129.43	128.91	127.37	125.14	123.83	121.73	120.37	119.13	116.08	114.22	111.23	106.7	101.92	97.65	96.82	95.67	94.97	95.27	96.04	97.27	100.5	104.99	108.59	111.22	113.49	112.57	114.2	114.62	114.92	113.76	114.69	113.2	116.19	116.6	116.41	114.79	113.19	111.17	108.94	104.2	97.73	92.83	85.74	93.81	97.9	99.4	97.78	94.2	88.91	89.11	88.46	86.53	85.1	83.8	82.82	81.56	80.85	80.39	79.99	79.2	77.95	77.8	78.52	77.64	70.95	63.89	56.67	54.19	54.3	54.13	53.7	52.81	52.13	52.49	62.18	64.52	68.1	72.68	78.89	83.81	85.15	86.03	84.46	81.33	76.16	83.11	85.06	85.87	81.81	75	68.96	65.5	62.92	58.77	58.34	59.62	67.87	84.11	100.94	100.16	102.65	105.28	105.71	105.94	103.46	102.08	101.69	100.42	101.11	101.09	99.75	97.64	99.75	99.75	99.86	97.45	96.51	94.21	90.43	82.96	74.04	78.95	88.81	90.7	90.35	88.61	89.24	90.96	91.89	93.47	93.39	93.03	91.99	92.85	93.63	95.3	95.76	95.47	95.19	93.05	90.91	87.93	85.55	85.32	77.81	69.09	63.25	58.97	56.46	57.6	71.46	77.9	76.52	77.38	79.79	82.71	84.39	85.63	86.67	87.11	87.6	86.87	85.61	82.68	80.09	79.57	79.59	79.66	82.29	84.75	87.08	89.03	90.96	92.96	94.17	94.65	95	94.02	93.43	93.89	91.23	88.24	85.46	83.04	80.12	75.77	71.87	70.36	69.81	68.84	64.13	57.82	54.41	55.68	70.43	71.13	70.17	67.86	66.45	58.7	65.05	70.4	73.51	75.38	78.66	81.52	81.49	80.41	83.65	84.8	85.32	86.76	88.08	88.87	89.44	88.71	87.78	87	86.21	85.57	86.55	87.45	88.15	88.94	89.8	90.35	90.49	88.79	87.43	85.61	83.16	81.03	79.64	79.09	79.99	76.93	82.15	87.72	86.14	83.95	83.06	78.94	76.08	74.55	73.63	70.23	66.85	68.81	68.63	67.62	65.23	57.76	56.53	54.5	52.7	54.27	56.9	58.35	61.5	61.63	63.17	69.05	73.69	75.86	77.16	79.1	80.17	81.1	81.94	82.45	83.9	85.01	85.05	85	83.51	85.89	87.49	88.53	89.55	89.61	90.26	89.54	89.09	89.43	88.61	87.8	87.84	87.61	87.08	86.14	86.85	87.25	86.43	86.68	87.7	88.66	90.21	91.7	92.01	91.16	89.13	88.26	86.86	85.57	82.96	80.41
-9999	-9999	-9999	-9999	-9999	-9999	-9999	-9999	-9999	-9999	-9999	-9999	-9999	-9999	-9999	-9999	-9999	-9999	-9999	-9999	-9999	-9999	-9999	-9999	-9999	-9999	-9999	-9999	-9999	-9999	-9999	-9999	-9999	-9999	-9999	-9999	156.9	157.53	157.47	157.2	155.78	151.23	146.43	134.84	128.25	129.42	125.95	119.44	108.39	101.92	99	97.43	97.43	98.26	99.58	100.62	107.97	119.15	131.63	140.67	146.38	148.76	148.78	148.55	147.84	147.1	145.43	143.58	143.4	142.66	141.43	140.02	135.47	133.79	136.31	137.66	138.01	140	141.09	141.67	142.29	143.14	143.47	144.18	143.94	143.17	142.44	141.35	140.59	139.13	137.78	136.49	134.73	132.14	128.91	124.43	120.36	116.66	112.34	107.44	100.87	94.94	90.76	92.89	96.43	99.88	100.77	102.49	107.42	112.48	113.34	111.47	107.11	103.02	100.53	102.02	104.46	103.4	99.25	98.42	101.95	100.72	97.53	92.9	93.62	98.36	101.92	103.65	102.22	100.56	98.37	94.98	87.2	80.19	78.76	83.43	91.34	95.44	102.43	102.02	98.06	89.31	89.65	100.02	105.59	108.4	106.52	105.14	104.27	105.29	107.34	108.61	110.33	111.95	112.29	112.22	112.6	109.83	99.6	94.93	106.21	105.69	102.92	100.44	109.95	118.55	121.26	122.5	122.64	123.49	124.63	125.97	126.91	127.99	127.96	128.85	128.61	126.26	122.89	122.53	121.74	118.89	115.81	109.4	108.75	106.82	102.67	99.05	97.67	96.33	94.91	94.58	94.12	94.54	95.93	97.87	101.11	103.8	105.75	106.91	107.96	108.22	109.24	110.68	110.1	109.76	113.45	116.33	116.24	115.83	114.85	112.79	110.53	107.69	102.74	97.1	91.71	89.94	99.72	103.24	102.36	98.85	94.61	90.09	91.63	90.57	89.87	87.89	86.71	85.58	83.5	82.29	81.36	79.76	78.81	79.48	79.79	79.37	78.27	75.84	76.32	71.78	67.87	60.77	62.13	63.52	61.89	56.56	52.17	58	62.32	65.8	70.92	76.32	81.22	82.32	83.6	79.41	71.96	77.84	82.93	83.39	83.16	76.81	68.38	61.14	57.64	58.22	57.18	62.41	67.58	76.37	91.72	98.83	97.98	101.01	102.3	102.48	102.65	101.51	97.28	96.58	95.86	97.15	98.03	98.33	96.2	95.99	97.06	98.67	97.86	96.44	94.7	88.22	80.1	73.31	79.14	85.74	87.23	88.08	87.16	88.83	90.62	91.44	92.57	93.07	92.13	90.75	90.53	91.57	92.95	94.01	93.78	93.6	90.96	88.14	84.52	80.94	82.09	71.7	60.07	57.23	55.23	55.15	58.85	62.58	71.74	76.6	77.76	79.21	79.06	82.04	83.88	84.98	86.23	86.14	85.75	83.38	79.84	77.55	77.59	79.3	83.14	84.73	86.55	88.98	89.69	91.19	92.03	92.44	92.61	93.26	92.9	91.56	92.13	90.53	87.12	83.54	81.47	78.76	75.79	71.73	68.99	68.04	66.34	61.52	57.43	54.52	52.67	64.3	66.98	63.55	60.64	55.52	64.88	72.73	75.29	78.27	77.8	80.22	82.62	84.07	83.68	85.8	86.98	88.24	89.09	89.36	89.21	88.14	87.23	86.68	85.24	84.93	86.38	86.96	87.78	88.26	88.96	89.66	90.35	90.67	90.12	89.78	88.37	86.12	83.45	79.96	77.47	75.48	79.87	85.09	87.01	86.55	84.54	82.79	80.32	78.36	78.51	75.33	73.6	70.19	64.78	62.39	60.88	59.85	55.6	55.81	53.41	53.44	53.84	57.59	61.76	66.74	69	70.66	72	74.43	75.99	76.97	77.79	78.85	79.69	83.12	81.53	85.06	86.47	86.62	86.09	85.71	85.83	87.14	88.12	88.58	88.52	88.85	88.83	89.91	90.61	90.56	90.16	89.11	89.24	88.46	87.63	88.43	88.22	87.8	87.53	88.14	88.87	90.35	91.89	92.59	92.07	91.38	90.14	87.97	84.38	81.44	78.35
-9999	-9999	-9999	-9999	-9999	-9999	-9999	-9999	-9999	-9999	-9999	-9999	-9999	-9999	-9999	-9999	-9999	-9999	-9999	-9999	-9999	-9999	-9999	-9999	-9999	-9999	-9999	-9999	-9999	-9999	-9999	-9999	-9999	-9999	-9999	-9999	-9999	157.08	158.74	157.99	155.22	150.27	143.75	141.2	140.44	135.01	127.92	119.91	108.61	108.99	106.09	98.69	97.43	97.43	97.43	99.29	109.01	119.83	129.45	136.94	142.26	145.44	145.47	146.14	146.27	146.15	145.61	145.21	144.51	144.74	144.21	142.56	139.82	135.33	131.4	131.2	135.38	138.24	138.88	140.92	141.28	141.78	142.38	142.98	143.66	142.6	141.51	140.42	139.68	139.54	138.06	136.21	134.45	132.19	129.67	126.89	123.82	121.2	116.95	112.48	108.29	104.86	98.23	93.05	90.43	91.09	92.89	95.06	99.39	105.46	109.06	107.72	104.46	101.21	98.72	96.27	99.25	100.12	96.7	94.8	97.52	95.49	93.53	89.9	90.6	94.67	96.75	98.02	97.97	97.05	94.93	94.42	89.34	80.19	78.23	81.34	91.57	95.98	99.74	101.73	98	87.58	89.44	97.11	99.49	100.47	99.68	103.05	105.84	106.7	107.84	108.4	109.85	110.96	111.84	111.53	110.49	105.36	99.86	93.09	103.79	102.2	97.34	104.15	114.36	120.63	121.44	120.98	121.37	121.69	121.95	124.55	126.01	126.74	126.41	126.96	127.33	125.23	122.83	120.99	119.68	117.7	114.16	109.31	104.29	102.22	99.2	99.83	99.18	96.49	94.23	93.82	93.21	92.69	93.82	94.62	96.41	99.1	99.79	100.77	101.69	102.5	104.33	106.23	103.99	108.36	114.29	115.04	115.21	114.03	112.99	111.67	109.13	105.32	100.56	96.94	91	95.49	103.25	105.65	102.87	98.47	95.43	94.7	93.95	92	90.81	89.65	88.22	85.93	83.51	82.88	80.48	78.26	77.67	78.33	77.78	78.68	81.21	82.14	81.65	81.21	79.79	77.22	74.52	74.44	69.67	61.13	52.16	54.64	59.89	62.76	66.92	72.52	75.89	79.15	80.42	75.98	67.56	78.21	80.33	79.85	78.2	73.32	60.46	57.11	58.71	62.46	68.99	75.21	82.79	93.15	95.94	96.25	96.43	98.87	99.4	99.93	100.61	100.02	98.08	92.77	91.05	93.75	96.17	95.93	94.48	93.28	96.42	97.49	97.04	96.09	94.18	89.97	81.38	70.27	72.67	82.38	85.6	87.62	86.76	89.12	90.2	90.12	91.21	91.49	89.91	88.56	87.03	88.86	90.51	92.86	92.87	92.71	89.87	85.25	81.38	76.02	76.51	63.88	56.46	54.59	55.21	64.3	73.89	76.59	80.81	81.26	82.17	82.29	82.74	82.58	82.58	84.64	86.2	85.95	84.48	81.34	78.08	74.85	80.51	83.71	86.33	87.84	89.36	90.48	90.16	90.39	90.24	90.25	90.63	92.05	92.71	89.93	90.44	89.17	85.86	81.07	80.07	77.58	75.34	70.55	67.25	65.08	62.12	58.68	55.84	53.38	52.47	56.7	57.22	54.49	59.86	68.11	76.79	76.49	76.49	81.01	81.51	82.87	85.08	86.71	87.81	88.93	89.32	89.19	89.71	89.43	88.57	87.4	85.68	84.07	84.07	85.62	87.17	88.52	89.53	89.71	90.17	90.81	91.28	91.46	91.38	90.36	88.85	86.35	84.39	82.12	78.59	74.67	80.83	85.19	87.03	86.64	84.47	82.1	80.42	77.82	76.5	75.46	71.81	70.28	67.51	64.2	60.02	55.64	54.71	53.73	52.62	53.13	53.1	57.16	63.74	70.4	72.53	73.52	73.47	74.56	74.95	76.22	76.6	76.36	79.41	82.83	77.19	85.03	85.54	85.81	86.12	85.9	86	86.59	86.98	87.27	86.26	87.59	89.48	90.35	91.16	91.07	90.69	90.61	90.07	89.5	88.87	89.75	90.19	89.7	88.76	89.52	90.44	91.22	92.01	92.8	92.82	92.38	90.35	86.88	82.18	77.84	74.26
-9999	-9999	-9999	-9999	-9999	-9999	-9999	-9999	-9999	-9999	-9999	-9999	-9999	-9999	-9999	-9999	-9999	-9999	-9999	-9999	-9999	-9999	-9999	-9999	-9999	-9999	-9999	-9999	-9999	-9999	-9999	-9999	-9999	-9999	-9999	-9999	-9999	157.54	158.3	158.52	157.09	153.95	152.45	148.03	142.42	133.76	123.8	116.36	119.24	118.35	113.18	107.22	99.56	97.9	97.59	97.17	104.48	116.18	125.03	131.66	136.27	139.62	138.67	140.96	143.84	145.28	144.71	145.17	145.49	145.33	145.04	143.7	141.51	138.32	134.36	130.94	132.54	135.23	135.55	138.04	138.85	140.39	141.12	141.85	142.5	141.84	140.65	139.49	139.1	138.47	136.6	135	133.78	131.75	129.94	128.04	125.51	124.16	120.73	116.99	113.83	110.98	107.04	102.52	98.56	95.55	91.3	89.46	90.77	97.23	103.43	104.81	101.44	98.49	96.99	94.34	94.11	96.05	93.16	90.23	90.91	88.64	86.43	85.07	86.18	87.2	87.41	89.75	90.19	90.32	91.54	90.78	87.62	80.89	78.3	78.96	85.45	92.22	95.7	100.57	97.87	85.05	91.42	93.74	96.25	98.5	99.69	103.98	105.85	106	106.57	107.54	108.61	109.64	110.55	110.49	108.41	102.88	98.35	90.27	100.19	94.95	99.55	108.64	117.12	120.07	119.91	119.39	118.31	117.39	119.73	123.21	124.85	125.33	125.51	125.73	125.53	123.6	119.83	117.95	116.88	113.07	109.29	105.49	105.48	105.06	105.13	105.82	103.88	100.83	95.74	93.46	92.33	91.9	92.13	92.23	93.37	93.49	94.47	96.18	97.16	98.17	99.8	101.33	102.45	108.11	111.16	111.82	111.89	111.56	111.1	109.25	105.53	100.82	97.26	96.35	97.15	101.95	105.42	106.63	104.16	102.03	100.42	97.5	95.02	92.31	88.91	87.05	86.32	83.78	80.82	80.8	79.03	76.79	75.66	75.86	76.96	71.27	80.44	82.78	82.49	81.85	80.41	79.02	77.5	76.14	72.79	62.12	52.56	52.59	56.93	62.3	68.35	70.06	71.64	74.88	74.39	68.75	65.68	73.62	74.36	74.75	73.59	68.76	62.53	59.13	62.47	67.2	77.25	86.3	92.49	93.55	95.36	95.35	95.36	96.55	97.43	97.96	98.86	98.06	96.44	93.1	87.78	93	94.41	93.84	90.73	93.53	96.76	96.37	94.33	92.32	91.68	89.16	85.43	77.36	65.96	81.11	86.37	87.69	85.98	88.27	88.38	89.28	90.29	90.02	86.06	86.13	84.42	87.67	89.7	92.11	92.7	92.76	89.79	88.27	85.6	80.08	69.81	62.09	56.7	55.39	59.43	73.72	80.16	81.27	82.24	83.46	84.65	85.35	85.01	84.49	84.34	85.45	86.48	85.3	83	79.2	76.7	78.5	83.39	85.19	87.17	87.87	88.97	89.34	88.97	87.82	87.81	87.72	89.12	91.35	91.46	88.67	89.07	87.96	86.35	83.46	80.31	76.82	72.86	69.08	65.85	62.41	59.31	56.38	54.09	52.29	52.95	53.52	54.94	70.16	75.41	76.41	77.66	80.33	80.08	81.4	84.62	85.91	87.61	89.35	90.05	90.28	90.52	90.28	89.73	88.47	86.81	85.5	84.24	83.1	85.47	87.24	89.01	90.38	91.28	91.45	91.63	91.78	92.1	91.7	90.72	90.38	88.15	85.26	82.08	79.92	76.86	73.49	78.31	80.92	84.69	85.42	83.31	79.71	78.26	77.91	76.19	73.69	70.66	68.72	64.69	61.72	59.4	57.22	53.74	52.98	52.31	53.68	54.56	57.84	64.49	71.1	72.14	72.32	72.92	74.09	74.12	74.39	73.75	74.76	78.94	81.03	83.63	81.64	84.97	86.07	85.63	85.69	85.8	85.14	84.95	85.26	85.84	88.53	89.92	90.79	91.64	91.24	90.8	90.82	90.27	89.95	89.88	90.29	90.81	91.31	90.17	90.65	90.67	91.25	91.84	92.54	92.74	92.55	90.79	87.89	84.57	80.65	75.38
-9999	-9999	-9999	-9999	-9999	-9999	-9999	-9999	-9999	-9999	-9999	-9999	-9999	-9999	-9999	-9999	-9999	-9999	-9999	-9999	-9999	-9999	-9999	-9999	-9999	-9999	-9999	-9999	-9999	-9999	-9999	-9999	-9999	-9999	-9999	-9999	-9999	-9999	158.8	158.89	158.05	156.41	154.4	148.27	137.86	129.24	128.14	130.4	129.6	125.04	117.49	110.22	103.79	99.43	96.59	98.29	99.87	112.15	113.41	124.69	128.92	131.44	130.7	134.67	138.7	140.74	144.48	145.36	145.86	145.42	144.89	144.21	142.61	140.31	136.97	134.02	129.51	128.3	129.99	134.01	136.34	139.23	140.24	141.22	140.83	140.23	138.57	136.91	136.78	136.29	134.93	133.88	132.68	130.93	128.05	127.6	126.71	125.07	122.73	120.05	117.11	113.66	110.85	108.16	105.05	103.02	99.95	93.71	89.83	87.28	95.21	99.36	97.57	94.8	92.58	92.63	88.38	89.15	87.31	85.23	83.65	82.54	81.57	81.47	81.33	81.41	82.26	81.14	81.12	81.42	83.67	82.62	80.36	78.53	77.71	77.25	78.38	78.95	87.19	94.27	94.14	82.7	90.93	94.48	95.88	96.86	94.91	102.57	105.95	104.63	105.31	106.37	107.21	107.69	107.24	107.4	107.96	105.29	99.64	89.69	90.06	98.92	110.42	113.02	116.78	117.61	118.56	117.27	115.72	114.74	119.21	121.59	123.53	123.33	122.98	123.96	124.2	122.14	119.22	118.17	116.49	116.27	114.56	116.24	115.81	112.65	110.78	110.62	107.27	102.04	98.05	95.04	92.84	92.1	90.35	89.81	91.53	91.58	89.62	94.14	94.44	95.28	96.45	98.73	101.69	103.53	106.82	107.07	108.43	108.47	108.6	107.57	104.33	102.53	103.55	104.8	104.68	107.82	110.18	109.47	108.04	105.34	102.08	98.49	95.28	92.25	89.03	86.34	82.7	80.97	77.16	78.43	76.09	75.47	75.48	73.93	74.48	73.74	76.01	79.44	81.89	81.55	80.36	79.43	75.82	75.22	70.32	60.49	53.46	52.38	54.15	59.33	65.87	66.76	69.91	67.79	66.91	62.17	63.3	68.86	66.4	64.2	64.71	63.19	57.27	62.14	63	67.33	75.93	84.09	89.37	93.22	95.35	93.55	93.59	94.4	95.45	96.56	96.88	96.01	93.61	91.97	87.11	90.66	92.38	91.73	88.19	94.36	96.55	95.19	92.88	88.68	85.21	86.1	83.1	79.35	69.64	68.82	83.27	86.71	85.49	84.82	87.61	89.59	89.94	90.75	85.44	83.5	85.48	87.5	89.56	91.97	92.63	92.79	91.28	89.64	87.2	83.72	81.2	64.17	55.2	54.75	60.44	72.68	79.88	82.24	82.99	84.23	85.91	86.76	86.47	86.17	86.2	86.83	87.33	84.78	81.36	77.26	75.09	79.39	83.12	85.49	85.89	87.26	87.45	87.66	87.27	85.68	85.05	85.89	88.6	90.76	90.4	88.21	86.76	86.13	85.55	85.79	84.56	80.93	76.39	70.43	64.33	60.43	58.47	54.52	51.74	51.97	54.64	63.08	76.86	77.41	78.11	81.56	82.91	83.94	84.28	84.13	85.4	88.35	89.93	90.22	90.77	90.92	90.74	89.71	88.69	87.11	85.05	84.12	83.35	84.09	86.81	89.03	90.92	92.24	92.21	92.81	93.86	93.79	92.61	91.22	89.28	89.28	88.75	83.99	79.71	76.92	74.86	73.93	72.54	76.71	81.51	83.21	82.92	79.94	75.82	75.49	74.51	72.12	69.78	66.57	64.08	60.75	58.16	54.25	54.68	52.14	52.84	52.43	54.55	57.73	66.36	71.16	71.47	71.63	71.98	72.35	71.75	70.87	70.22	73.09	76.31	78.73	80.6	78.72	83.49	84.26	83.62	83.93	84.04	83.63	82.76	82.93	85.35	87.19	89.99	90.88	91.72	91.13	90.75	89.92	88.95	89.06	88.96	90.16	90.31	91.29	90.99	91.4	91.47	91.28	91.76	92.2	92.18	91.95	90.94	88.87	85.14	80.52	76.21
-9999	-9999	-9999	-9999	-9999	-9999	-9999	-9999	-9999	-9999	-9999	-9999	-9999	-9999	-9999	-9999	-9999	-9999	-9999	-9999	-9999	-9999	-9999	-9999	-9999	-9999	-9999	-9999	-9999	-9999	-9999	-9999	-9999	-9999	-9999	-9999	-9999	-9999	159.34	159.21	158.14	156.13	150.12	147.13	146.1	143.09	141.55	139.28	134.11	128.13	121.34	112.92	104.33	102.81	97.97	95.72	95.61	104.13	111.88	116.91	120.45	122.53	122.97	128.8	133.45	139.98	143.74	145.37	145.32	145.27	144.73	144.16	143.12	141.58	139.22	137.59	135.16	131.49	126.93	127.76	135.26	139.2	139.88	139.47	139.05	138.48	137.2	135.35	134.37	133.81	133.08	132.43	131.58	130.14	127.35	124.9	124.7	124.79	123.04	120.79	118	114.7	111.77	108.52	105.76	104.05	101.37	96.15	90.72	87.85	88.95	91.38	90.85	89.64	87.32	85.5	84.29	84.1	84.63	83.92	85.72	87.61	88.37	87.52	86.49	86.14	85.11	83.36	81.26	79.57	78.18	78.6	78.37	78.86	79.92	79.61	77.67	76.5	78.64	85.83	85.52	79.38	92.11	95.07	95.86	95.72	93.37	95.7	99.8	103.08	104.77	105.3	102.65	102.94	101.42	102.49	102.22	98.33	90.26	86.92	95.84	105.26	108.45	111.69	113.03	113.01	115.22	114.1	112.5	116.43	120.56	121.92	122.72	121.73	120.65	123.07	123.73	123.1	122.03	120.28	120.43	118.06	115.72	116.15	116.11	115.34	117.13	114.66	109.55	104.37	100.59	96.99	95.52	93.59	91.32	89.34	90.27	92.52	93.43	95.11	95.94	96.7	97.67	98.05	98.72	100.46	103.07	102.63	104.56	105.65	107.34	108.14	108.02	108.23	110.42	111.14	110.03	111.24	112.4	111.18	109.05	106.13	102.53	99.17	95.77	92.22	89.28	86.25	84.96	83.05	81.58	78.92	77.45	73.15	72.8	70.05	69.33	67.86	69.64	69.64	79.32	80.15	80.03	79.7	78.54	75.63	72.88	67.24	58.96	52.59	52.41	52.73	58.58	63.5	66.94	62.58	53.98	52.35	54.6	55.93	53.86	53.85	54.61	57.87	57.12	56.75	64.53	69.12	75.3	82.58	89.04	92.09	92.56	91.2	90.68	91.69	93.68	95.16	94.97	93.37	89.77	88.54	84.08	88.56	89.67	87.57	88.87	93.91	94.7	92.86	90.93	88.32	84.71	79.84	79.25	76.99	70.5	63.71	79.97	85.22	82.45	84.55	88.17	89.1	87.24	78.69	82.15	79.56	85.16	87.62	89.07	91.36	92.69	92.74	90.82	89.28	85.18	83.38	80.36	68.31	55.67	54.73	56.85	66.32	81.45	82.05	83.57	85	86.74	88.06	87.89	87.77	87.86	88.24	87.67	83.84	80.8	76.65	73.49	78.07	81.56	83.45	83.31	84.65	85.15	86.03	85.21	83.68	84.17	86.02	87.87	90.23	90.77	89.08	86.33	85	84.4	84.7	83.47	81.3	76.94	71.3	64.75	60.09	55.92	53.03	51.54	55.92	72.18	76.92	75.38	80.15	82.19	84.86	86.1	86.74	87.14	86.98	88.08	89.55	90.49	90.58	90.43	90.62	90.62	89.29	87.64	85.37	83.86	83.07	82.81	85.69	88.08	90.16	92.05	92.9	93.33	93.69	93.58	93.36	92.77	92	89.28	89.28	89.44	80.48	79.68	80.16	79.88	76.66	72.03	74.39	78.46	81.48	81.52	79.43	76.21	71.35	71.56	70.92	68.21	65.23	61.42	59.52	58.66	54.43	54.76	52.42	52.07	52.79	54.51	58.2	65.34	69.13	70.48	70.49	68.86	68.8	67.62	67.94	68.59	71.78	72.7	75.95	78.24	78.88	76.52	82.01	80.65	81.05	82.35	82.4	81.4	81.06	82.74	84.82	87.87	89.03	91.25	90.9	90.05	87.55	87.55	87.66	87.92	89.46	90.67	90.59	91.07	91.4	91.33	91.26	91.33	91.43	91.41	91.16	89.91	87.39	84.02	79.24	74.04
-9999	-9999	-9999	-9999	-9999	-9999	-9999	-9999	-9999	-9999	-9999	-9999	-9999	-9999	-9999	-9999	-9999	-9999	-9999	-9999	-9999	-9999	-9999	-9999	-9999	-9999	-9999	-9999	-9999	-9999	-9999	-9999	-9999	-9999	-9999	-9999	-9999	-9999	-9999	159.05	158.06	156.02	154.86	153.65	151.95	149.63	145.56	139.75	134.98	126.21	116.58	111.47	110.94	108.39	103.58	96.35	95.37	100.08	106.95	110.43	114.01	112.08	117.52	128.56	137.69	142.01	143.97	144.87	144.8	144.74	144.58	143.96	143.18	142.4	141.4	140.13	138.23	135.23	129.73	123.64	131.63	137.15	138.5	137.96	137.39	136.56	135.83	133.41	132.22	131.96	131.22	130.48	129.98	129.29	126.87	123.48	120.42	121.6	121.44	119.93	117.27	113.3	109.57	105.93	103.65	100.66	97.08	91.48	89.28	88.19	87.32	86.31	86.1	86.45	87.76	88.69	89.58	90.63	89.37	91.65	94.14	96.08	97.89	97.36	96.76	96.29	92.8	90.12	89.24	89.19	87.53	85.07	80.77	84.99	89.42	86.68	81.83	79.11	76.69	76.47	76.73	77.42	85.37	93.76	95.23	92.87	90.41	98.9	104.48	105	106.01	105.75	103.26	100.42	97.75	93.09	92.72	89.16	85.08	94.76	101.53	103.25	106.15	107.64	109.76	109.06	107.81	105.86	110.22	117.09	120.72	122.14	121.49	118.62	119.06	122.06	122.75	122.32	121.64	119.83	118.57	116.66	114.99	113.84	114.06	113.69	113.61	115.56	113.55	108.52	104.02	100.54	98.6	96.73	94.13	89.93	89.61	92.32	94.42	95.61	96.38	97.07	98.73	100.02	100.59	102.44	104.41	103.83	103.82	106.19	108.78	110.66	111.76	113.04	113.84	113.18	112.82	112.7	111.38	110.67	108.15	104.51	101.55	97.9	94.02	90.75	88.32	86.51	84.96	80.54	78.54	75.62	74.69	75.54	72.29	75.79	71.45	72.81	70.68	68.38	72.85	77.18	78.37	78.26	78.76	78.5	75.75	69.85	63.78	59.13	52.81	49.15	52.43	57.47	60.56	53.96	50.94	52	52.4	52.75	56.01	58.87	56.17	55.24	57.14	61.54	69.3	71.74	77.95	84.55	89.27	90.72	90.73	89.53	88.15	90.6	92.65	93.51	92.43	91.22	87.83	83.63	80.21	84.99	83.21	86.88	90.72	91.83	91.43	90.29	88.59	87.36	85.42	81.48	75.36	68.53	65.12	65.24	80.91	83.69	81.23	86.58	87.12	87.57	78.94	83.1	78.6	80.85	83.69	85.12	86.8	90.81	92.28	91.97	90.42	87.95	83.93	78.53	75.3	70.31	58.65	54.8	54.67	58.65	78.16	81.71	82.9	84.71	86.88	88.67	89.7	89.68	89.78	89.95	88.06	85.4	81.46	76.99	73.48	74.34	77.73	79.43	79.78	80.74	83.42	84.42	83.08	80.66	83.19	85.6	88.16	90.09	91.02	89.52	87.94	85.68	82.91	83.22	82.19	79.79	75.48	70.57	64	59.22	55	51.76	51.19	53.55	76.38	78.44	80.71	82.74	84.78	86.26	87.13	87.96	88.61	88.84	89.24	89.76	90.25	90.43	89.73	88.95	87.52	86.78	85.83	84.24	82.15	81.78	83.71	86.61	88.76	90.52	91.94	92.79	93.18	93.34	93.12	92.9	92.28	92.35	90.6	89.1	87.02	85.36	84.1	84.21	81.52	78.73	74.81	69.2	75.19	79.58	80.3	78.47	76.05	72.47	68.85	67.08	65.18	61.91	60.73	58.95	55.14	52.95	53.8	52.73	51.77	53.16	55.8	58.02	61.09	64.8	66.93	67.73	67.24	65.9	65	65.87	67.31	69.19	73.32	75.62	76.04	76.03	77.29	76.17	78.14	79.06	81.85	82.13	80.72	78.63	80.22	83.1	84.97	86.71	89.73	90.82	90.13	87.01	86.38	86.56	86.71	88.3	89.81	89.69	90.34	90.59	90.61	90.34	90.01	89.67	89.92	90.42	88.42	84.64	80.89	76.18	72.04
-9999	-9999	-9999	-9999	-9999	-9999	-9999	-9999	-9999	-9999	-9999	-9999	-9999	-9999	-9999	-9999	-9999	-9999	-9999	-9999	-9999	-9999	-9999	-9999	-9999	-9999	-9999	-9999	-9999	-9999	-9999	-9999	-9999	-9999	-9999	-9999	-9999	-9999	-9999	158.53	158.7	158.04	157.04	155.65	153.86	151.18	145.1	139.21	131.59	121.08	122	121.64	118.97	113.8	109.31	101.57	96.34	95.64	100.48	104.92	106.39	111.21	119.31	129.26	136.6	139.81	142.26	143.6	144.67	144.6	143.92	143.07	142.17	141.46	141.05	140.44	138.79	135.9	131.56	125.56	126.92	134.04	137.16	136.85	135.79	134.51	133.79	131.68	128.95	128.75	127.91	126.74	127.77	127.42	126.13	123.37	120.25	116.12	117.3	116.71	114.44	110.79	107.34	103.38	99.46	95.34	91.32	90.11	91.03	90.39	92.43	92.62	92.91	92.97	96.36	96.15	97.21	99.35	98.14	100.62	105.01	109.47	111.89	111.58	111.18	109.28	104.99	100.67	99.96	96.76	90.91	83.66	83.63	89.72	94.21	90.72	86.44	84.31	82.48	76.56	75.86	75.84	77.19	77.98	92.59	97.26	88.36	93.1	106.66	108.01	107.51	106.5	104.97	103.98	103.31	101.04	96.48	86.38	88.32	96.11	98.99	98.67	102.76	106.32	108.12	105.65	101.38	110.14	115.54	118.13	119.64	120.1	118.94	115.37	118.83	121	122.59	121.97	121.25	119.11	121.02	115.68	114.22	113.64	113.02	113.48	114.33	115.86	115.92	112.52	111.32	105.92	101.45	99.96	96.4	92.69	89.48	90	92.83	94.62	95.73	97.23	98.81	100.72	101.82	104.59	107.5	107.95	107.12	109.08	111.65	113.36	113.96	115.65	114.47	112.96	111.41	109.4	107.48	106.3	103.79	100.63	97.66	93.94	91.62	87.59	86.65	85.38	81.6	77.35	79.28	80.36	80.55	76.99	77.82	77.79	76.17	75.24	72.02	67.97	63.54	68.04	73.37	73.52	77.41	77.52	76.19	71.42	63.64	59.56	54.04	50.57	50.04	52.44	52.9	51.15	54.08	65.8	63.8	64.76	73.17	75.78	74.49	65.1	63.34	65.36	69.81	75.98	81.93	86.7	88.82	89.14	88.71	87.85	86.79	90.11	91.3	90.49	88.33	87.32	84.54	81.28	76.6	79.9	83.72	88.31	89.28	88.73	88.17	87.94	86.47	86.78	86.19	84.49	80.74	74.6	61.92	70.69	81.03	81.3	81.89	85.56	86.53	84.44	82.5	77.81	75.17	80.01	81	84.39	87.54	90.45	91.52	90.72	88.93	86.5	81.92	76.27	70	65.72	61.64	54.54	53.94	56.05	70.22	81.16	81.63	83.39	86.64	89.78	91.14	91.6	91.52	90.45	88.91	86.58	82.12	77.42	75.71	72.28	72.55	73.69	74.05	79.57	80.9	81.41	79.21	79.18	82.72	85.04	87.54	90.17	90.29	89.16	87.08	85.43	82	80.77	82.07	79.66	74.27	68.74	63.25	58.4	54.75	51.92	51.51	50.3	76.2	80.03	82.1	83.37	85.18	86.71	87.74	88.01	88.34	88.47	88.34	89.25	89.2	88.79	88.03	86.78	86.06	84.75	83.78	82.6	80.66	82.32	84.34	86.97	89.17	90.76	91.64	92.11	92.45	92.25	92.63	92.44	92.21	92.42	91.85	90.4	88.63	87.02	85.77	83.96	81.38	77.4	74.72	74.97	72.89	77.5	78.71	77.87	76.03	73.07	69.71	68.14	67.17	65.05	62.46	60	56.11	52.55	53.66	52.31	53.39	55.52	57.59	62.64	66.17	66.25	65.75	67.67	66.73	65.03	63.02	63.88	65.74	68.9	71.15	73.43	72.85	72.77	74.64	75.44	75.75	78.07	80.92	81.41	79.43	77.28	78.34	80.08	82.33	85.5	88.92	90.34	89.77	88.25	87.12	86.56	86.55	87.57	88.51	88.93	89.54	89.74	89.88	89.26	88.55	88.86	89.35	88.99	85.79	83.48	79.48	74.92	70.25
-9999	-9999	-9999	-9999	-9999	-9999	-9999	-9999	-9999	-9999	-9999	-9999	-9999	-9999	-9999	-9999	-9999	-9999	-9999	-9999	-9999	-9999	-9999	-9999	-9999	-9999	-9999	-9999	-9999	-9999	-9999	-9999	-9999	-9999	-9999	-9999	-9999	-9999	-9999	-9999	158.83	158.57	158.55	156.45	153.38	150.33	143.45	134.78	131.18	132.14	131.2	129.27	125.41	120.43	114.01	107.34	99.08	95.3	97	100.02	105.87	110.09	118.08	125.12	130.99	135.62	139.74	141.93	143.82	144.47	143.37	142.21	141.21	140.73	140.31	139.8	138.64	136.39	133.15	127.81	121.29	129.44	135.27	135.57	134.24	132.91	131.72	129.52	125.56	123.56	120.79	119.39	120.79	123.72	123.27	121.78	119.56	115.02	111.48	112.26	110.59	107.07	103.16	98.8	94.35	91.06	92.25	96.68	98.06	92.43	98.36	101.64	101.74	99.12	103.48	105.34	108.38	109.9	107.09	110.53	114.68	116.75	118.12	117.7	116.28	113.47	109.14	105.21	99.06	92.23	86.47	86.49	92.49	100.88	100.17	94.84	90.83	90.08	90.75	84.28	79.8	76.74	75.35	75.35	75.56	83.98	82.43	94.96	109.46	110.62	109.39	108.25	105.89	103.93	102.64	100.14	97.36	86.33	85.67	89.94	90.82	97.88	101.78	104.64	103.31	96.9	105.12	113.28	115.78	117.56	117.63	116.42	112.64	120.54	121.44	121.83	122.48	120.43	122.13	119.87	118.63	113.88	110.87	112.29	111.87	111.88	114.25	114.58	115.41	115.42	110.9	113.03	110.32	106.5	102.06	96.75	92.31	88.78	89.63	91.44	93.44	95.22	96.95	99.84	102.61	106.89	110.43	110.87	110.06	112.54	114.53	115.5	114.88	114.8	113.35	110.03	105.45	102.48	99.72	95.78	93.28	90.63	89.88	87.26	85.61	82.93	81.21	79.82	79.57	83.02	83.46	83.72	80.61	77.51	79.93	78.54	76.87	75.26	74.37	73.42	70.54	62.88	62.5	67.36	75.52	75.43	73.12	70.48	63.89	57.45	53.54	50.22	49.74	49.17	50.94	56.82	64.71	71.26	75.06	78.18	79.57	79.81	80.58	77.08	74.46	74.09	77.91	81.74	86.58	87.4	87.06	86.68	86.35	85.89	86.65	87.75	88.97	86.86	81.36	82.13	80.29	76.4	75.46	83.71	86.79	86.83	86.28	85.45	84.91	84.54	84.7	85.03	83.67	83.04	77.33	67.48	59.48	70.78	80.49	77.27	81.45	82.85	80.18	84.08	75.34	72.04	76.87	80.83	84.12	87	88.97	90.64	90.16	87.02	85.16	84.51	81.76	71.36	63.79	59.96	58.9	57.36	54.75	53.41	71.79	75.22	80.64	83.65	87.78	90.49	92.18	91.99	91.3	90.63	89.3	86.68	83.36	80.67	80.48	77.53	74.21	70.14	70.59	75.55	77.38	77.07	79.58	82.09	84.06	85.91	88.04	88.96	89.82	88.64	86.68	84.06	80.97	80.16	81.51	80.5	75.36	70.65	64.68	59.79	55.1	52.11	52.76	50.28	68.39	78.99	80.91	83.11	85.69	86.81	87.46	86.92	87.09	86.88	87.17	88.1	88.26	87.28	85.53	84.97	84.88	83.67	82.88	81.32	80.45	82.65	84.81	86.61	88.56	89.53	90.45	90.83	90.82	91.36	91.72	91.59	91.5	91.26	90.86	89.61	87.91	85.49	84.33	81.9	78.01	74.7	74.7	70.73	66.6	73.15	75.5	76.78	75.47	73.23	70.9	70.76	69.2	66.11	63.2	60.53	56.39	53.12	53.49	52.47	55.82	63.49	66.9	67.97	67.89	65.98	64.6	68.3	67.32	65.1	62.52	62.33	65.06	67.57	69.75	70.69	70.05	69.45	71.83	74.3	74.48	76.81	79.75	79.85	77.5	75.74	79	81.12	84.94	86.86	88.29	89.38	89.37	88.58	87.46	86.62	85.84	86.53	88.09	89.15	89.75	89.96	89.2	88.32	87.39	87.94	88.74	86.93	83.69	80.34	77.64	73.47	69.51
-9999	-9999	-9999	-9999	-9999	-9999	-9999	-9999	-9999	-9999	-9999	-9999	-9999	-9999	-9999	-9999	-9999	-9999	-9999	-9999	-9999	-9999	-9999	-9999	-9999	-9999	-9999	-9999	-9999	-9999	-9999	-9999	-9999	-9999	-9999	-9999	-9999	-9999	-9999	-9999	-9999	158.4	158.16	156.75	154.71	152.03	148.16	144.58	141.87	140.27	138.12	135.95	132.52	127.76	120.49	113.07	104.61	96.82	96.23	94.69	101.02	106.03	110.53	116.72	120.99	130.57	136.53	140.03	141.31	143.34	143.34	142.3	140.68	140.3	139.79	139.54	137.99	135.95	132.8	128.32	121.56	125.21	134.54	135.26	134.3	132.97	131.64	129.04	127	124.95	122.45	119.06	113.7	115.88	117.95	118.13	116.36	113.41	108.35	105.29	104.6	101.48	97.23	93.69	92.05	96.93	102.91	104.16	97.23	96.74	104.47	109.87	111.18	104.36	110.5	112.85	116.61	116.79	115.67	118	118.75	119.67	119.2	118.53	115.58	111.99	107.5	101.8	93.8	88.88	90.25	94.34	105.29	110.15	107.67	99.47	97.32	99.41	95.93	87.01	83.67	84.28	80.14	76.35	74.53	74.98	79.77	96.91	109.98	111.83	111.05	108.44	105.5	102.67	100.93	98.8	95.4	92.56	82.21	85.76	95.83	99.28	99.94	99.53	91.64	103.48	110.54	112.92	113.77	113.78	112.04	106.9	117.7	121.68	122.72	122.45	122.05	121.55	122.11	119.72	116.16	109.36	101.38	106.38	105.94	104.83	108.63	109.16	108.55	110.02	100.18	109.66	109.17	108.11	103.73	98.97	94.36	89.42	88.78	91.53	93.17	95.83	97.77	100.42	104.35	108.36	112.66	113.1	113.22	115.44	116.85	116.8	114.35	112.21	109.56	102.97	99.92	96.68	97.06	95.39	94.39	92.58	90.14	89.4	87.33	84.55	86.77	86.63	85.18	87.4	87.71	85.21	79.49	82.32	81.44	80.07	78.57	76.52	74.96	73.92	70.42	68.69	67.35	59.46	69.7	68.76	64.89	64.04	60.94	54.95	50.77	49.41	49.27	52.35	58.25	64.85	67.5	70.32	74.63	77.76	79.29	80.5	81.8	82.68	82.19	82.39	83.33	85.1	86.9	86.54	84.96	83.52	82.88	84.13	86.6	88.14	86.5	83.78	79.43	77.26	75.34	72.89	81.41	84.89	84.33	83.93	83.87	82.63	82.03	82.24	80.63	80.95	82.3	81.96	75.85	64.74	57.76	72.28	78.97	76.16	78.04	79	77.59	75.2	69.07	76.34	81.26	83.82	85.52	86.81	88.56	89.44	88.19	86.51	80.03	80.82	72.99	60.36	56.32	55.23	55.26	54.17	54.64	58.01	73.23	76.79	81.98	85.83	88.79	91.08	91.74	90.99	90.29	89.54	88.58	87.08	84.02	82.62	80.36	77.47	75.63	73.53	69.91	70.54	73.55	77.95	81.37	84.05	85.91	86.95	87.96	89.18	89.39	88.3	85.83	82.19	79.15	77.98	81.17	80.2	77.5	73.45	68.81	64.01	57.36	52.76	50.36	51.27	69.12	77.44	78.56	83.62	86.03	86.37	86.5	85.94	84.98	84.49	85.18	86.13	86.87	85.37	83.51	84.29	84.4	82.89	81.64	80.53	80.16	81.71	83.64	85.73	87.96	88.42	87.03	88.52	88.83	89.69	90.07	89.79	90.13	89.94	89.64	88.63	87.38	85.72	82.06	79.09	77.38	77.39	76.74	74.35	69.59	67.12	73.23	75.32	75.17	74.17	72.88	70.81	67.61	66.56	64.13	60.07	58.32	55.68	52.82	52.9	56.05	68.19	68.66	67.69	64.46	63.6	65.89	68.34	67.28	65.28	61.33	62	64	66.73	67.52	67.49	67.21	70.82	73.66	73.89	73.97	75.67	78.08	77.3	74.24	76.21	80.03	84.51	87.43	89.12	89.97	89.69	89.04	88.23	87.27	86.28	84.99	86.53	88.48	89.19	89.03	89.83	89.09	88.2	86.87	87.23	87.75	85.68	82.29	77.67	73.6	70.36	68.01
-9999	-9999	-9999	-9999	-9999	-9999	-9999	-9999	-9999	-9999	-9999	-9999	-9999	-9999	-9999	-9999	-9999	-9999	-9999	-9999	-9999	-9999	-9999	-9999	-9999	-9999	-9999	-9999	-9999	-9999	-9999	-9999	-9999	-9999	-9999	-9999	-9999	-9999	-9999	-9999	-9999	158.22	157.14	155.73	154.32	152.92	150.69	149.1	146.9	144.9	143.1	140.79	136.16	130.54	122.74	113.22	109.54	103.06	94.99	95.4	96.11	100.64	107.41	109.61	117.6	126.49	131.38	134.52	137.96	140.3	141.58	142.32	140.74	139.94	138.32	138.34	137.65	135.16	131.59	128.02	121.84	125.34	134.34	135.07	134.19	133.44	132.11	129.66	129.05	129.05	127.29	122.95	119.31	112.62	109.85	109.37	109.74	109.37	106.34	100.96	97.83	95.16	93.16	96.06	101.68	109.1	109.12	103.84	96.45	101.97	108.57	115.69	115.34	110.05	115.69	118.41	119.3	119.79	119.64	120.45	120.76	120.66	119.19	117.04	113.55	109.6	104.65	96.88	91.36	91.59	103.13	110.5	113.94	115.01	110.94	106.96	108.39	105.19	96.2	89.05	90.17	88.4	82.78	77.26	75.25	74.87	83.58	97.76	107.47	109.52	108.81	106.12	102.24	98.87	98.13	96.83	92.98	89.8	84.18	84.02	95.68	96.22	92.85	87.97	95.11	104.38	109.74	111.8	106.33	104.79	101.7	113.55	118.24	119.62	121.58	120.88	120.15	120.28	119.22	115.67	111.45	107.1	98.48	98.12	101.07	96.91	100.25	101.18	99.8	99.97	99.75	101.53	101.79	101.34	99.58	96.81	92.86	88.27	89.41	90.74	93.22	96.18	98.25	101.06	105.47	109.19	114.15	116.42	115.8	116.72	117.76	116.64	112.78	107.09	103.38	103.54	103.09	99.48	103.38	100.87	101.96	100.86	99.77	97.38	92.01	89.23	95.03	90.42	89.98	90.31	88.51	82.15	84.61	86.23	84.65	80.93	79.51	76.06	74.03	72.53	75.94	77.48	74.16	65.72	58.82	57.16	58.39	60.3	60	55.56	49.93	48.82	50.21	62.51	62.22	64.89	67.08	68.36	70.03	73.73	76.81	79.51	82.19	83.73	84.46	85.39	86.32	86.58	86.62	83.97	81.25	81.17	84.39	86.56	87.75	88.38	85.8	80.38	74.59	72.32	71.62	79.12	83.39	83.17	82.45	81.71	81.57	81.94	80.16	76.68	75.73	79.77	81.61	80.34	75.82	65.6	55.36	68.65	78.99	75.78	72.25	72.39	73.44	66.66	72.32	77.45	80.31	83.26	83.64	85.7	86.76	86.96	86.61	85.71	82.31	69.53	59.2	53.35	53.89	54.38	56.12	59.95	64.7	77.88	81.92	82.87	83.23	87.18	89.63	91.31	90.77	89.85	89.14	88.41	87.66	86.3	84.09	81.28	79.08	75.36	73.4	70.69	68.54	70.1	75.44	80.17	83.67	85.95	87.18	88.11	88.68	88.16	88.14	87.35	86.03	83.75	80.58	76.01	79.06	78.87	76.9	73.84	69.64	65.69	55.31	51.63	50.51	54.24	71.8	73.37	79.23	83.49	85.89	86.25	85.21	83.1	81.37	84.44	85.55	85.97	84.67	82.77	82.09	83.05	83.58	82.79	81.07	79.47	80.07	82.57	84.69	86.61	88.03	88.4	87.67	86.84	86.72	87.86	87.9	88.01	88.5	88.24	88.66	88.17	87.12	85.05	81.7	82.28	82.5	81.55	78.53	75.35	72.6	66.65	67.93	73.04	74.26	73.54	72.42	70.49	67.66	64.88	63.54	60.82	58.58	57.71	52.02	52.67	58.03	68.98	68.93	66.76	63.82	62.12	66.18	68.11	65.1	62.7	59.09	62.44	64.5	64.84	65.15	64.65	67.36	70.41	72.11	71.96	72.05	72.73	74.54	72.92	77.02	79.45	83.34	87.2	88.92	89.54	89.81	89.35	88.71	87.68	86.67	85.73	85	86.82	88.3	88.67	88.77	88.88	89.02	88.73	87.44	86.76	87.54	86.53	84.44	80.21	76.32	71.58	67.61
-9999	-9999	-9999	-9999	-9999	-9999	-9999	-9999	-9999	-9999	-9999	-9999	-9999	-9999	-9999	-9999	-9999	-9999	-9999	-9999	-9999	-9999	-9999	-9999	-9999	-9999	-9999	-9999	-9999	-9999	-9999	-9999	-9999	-9999	-9999	-9999	-9999	-9999	-9999	-9999	-9999	-9999	156.09	154.68	153.44	152.63	151.86	150.17	149.75	147.87	145.83	143.1	137.26	130.09	127.51	123.71	116.71	110.28	102.48	95.03	95.59	93.32	100.96	106.9	114.76	121.53	123.73	126.59	132	137.27	140.24	140.15	138.86	138.31	137.41	137.11	137.17	135.15	131.64	127.99	121.86	122.36	133.08	134.88	134.35	133.7	132.54	130.53	128.52	128.26	126.83	124.07	120.59	117.7	112.94	107.82	102.65	104.07	100.84	97.31	95.66	99.71	105.14	112.55	114.94	112.88	109.69	101.51	100.34	108.46	114.72	116.79	119.09	116.57	119.61	121.49	121.76	121.83	122.2	122.06	121.28	120.27	118.1	114.07	110.2	105.95	98.67	91.46	91.64	101.1	113.7	118.19	118.81	118.7	116.86	116.04	113.72	108.48	97.2	101.96	101.03	92.25	86.4	79.98	75.41	73.39	76.82	82.3	100.86	102.6	101.9	102.63	99.75	96.47	94.63	94.42	93.57	92.38	86.9	79.51	91.84	89.55	84.49	92.32	99.83	105.28	109.16	109.53	105.06	96.17	107.48	113.79	113.33	116.7	117.62	117.06	117.2	116.95	112.5	109.99	105.32	101.47	96.53	89.23	95.52	93.32	94.93	94.2	93.01	93.04	98.85	96.83	93.97	95.48	93.3	91.21	88.41	88.21	91.68	91.48	92.31	94.01	98.1	101.57	104.42	109.35	115.26	117.46	118.67	118.43	117.67	113.73	108.52	108.43	110.64	110.6	104.91	103.05	106.65	106.02	107.41	106.76	103.97	97.44	91.64	97.59	98.46	95.29	93.53	92.01	86.66	86.71	89.29	87.88	84.83	81.07	77.96	77.08	76.71	76.66	78.61	78.75	76.1	72.04	72.43	69.34	67.02	66.52	63.89	55.51	48.24	48.26	51.02	62.95	64.95	63.87	63.33	64.71	67.01	70.04	75.65	78.63	81.36	82.89	84.16	85.19	85.94	85.54	83.95	80.34	80.04	84.11	86.05	86.47	87.69	87.59	86.28	82.98	78.72	69.17	78.02	80.56	82.17	80.8	78.88	77.52	79.76	79.57	76	74.78	74.24	78.62	78.07	75.31	72.55	67.79	54.76	61.38	75	76.01	70.28	77.11	64.73	67.17	71.33	72.26	75.48	77.99	82.42	83.34	83.7	84.24	84.17	84.64	80.59	68.11	53.34	53.02	54.4	58.78	64.58	66.08	75	80.68	82.51	83.67	85.1	87.96	89.68	90.66	88.83	87.2	87.66	87.11	86.19	84.73	82.9	80.65	79.09	75.6	71.21	67.75	69.15	72.04	77.01	80.96	83.4	85.91	87.55	88.56	88.03	87.08	86.8	86.62	86.61	84.71	82.67	78.85	73.94	77.1	75.32	72.06	69.71	64.54	56.78	51.44	50.75	56.59	65.22	72.62	78.49	83.32	85.18	85.71	84.86	80.91	81.2	83.31	84.45	84.23	82.03	80.52	81.59	82.39	82.64	81.49	80.31	79.62	81.98	84.49	86.4	87.85	88.09	87.92	87.14	87.17	87.41	86.78	86.36	86.47	86.8	86.86	87.36	87.23	86.69	85.51	85.26	85.22	84.2	83.37	80.65	78.34	74.87	71.51	65.83	69.65	73.15	72.37	71.02	68.23	65.73	62.76	62.51	60.28	57.86	52.32	51.72	51.93	65.26	68.51	67.59	65.47	63.1	60.52	63.88	64.35	60.32	58.17	58.04	58.21	60.04	61.06	61.16	63.11	65.15	68.15	70	69.22	69.5	72.45	71.84	73.68	77.77	82.33	86.06	88.82	89.56	89.86	89.79	89.05	88.27	87.12	86.11	85.15	83.94	85.6	86.79	87.7	88.15	87.96	88.19	88.04	86.65	85.85	87.54	86.97	84.22	80.45	75.69	71.01	67.18
-9999	-9999	-9999	-9999	-9999	-9999	-9999	-9999	-9999	-9999	-9999	-9999	-9999	-9999	-9999	-9999	-9999	-9999	-9999	-9999	-9999	-9999	-9999	-9999	-9999	-9999	-9999	-9999	-9999	-9999	-9999	-9999	-9999	-9999	-9999	-9999	-9999	-9999	-9999	-9999	-9999	-9999	-9999	-9999	153.45	152.63	151.66	150.31	149.67	148.68	147.14	144.61	141.01	138.41	134.62	130.38	122.68	115.32	108.38	102.64	95.2	94.48	94.88	107.79	109.68	114.43	114.87	117.17	123.62	133.29	137.51	138.56	138.68	137.92	136.94	135.97	135.92	135.07	132.42	129.21	122.56	118.93	130.24	133.2	133.63	132.99	131.44	129.24	126.66	125.69	124.25	121.63	119.37	116.97	114.01	109.52	103.03	98.8	97.24	101.17	107.42	115.75	119.53	119.82	117.65	114.16	108.14	99.97	106.63	115.66	119.82	121.05	121.69	122.61	123.22	123.27	123.36	123.09	122.74	121.99	120.6	119.01	116.8	112.49	107.17	99.84	93.64	95.08	96.91	108.34	117.55	121.58	121.68	121.15	120.5	119.05	115.25	106.14	104.52	111.32	109.4	101.11	91.4	84.45	78.76	73.52	73.73	75.3	80.9	87.55	98.29	100.98	97.65	94.43	92.98	88.14	88.58	90.18	86.69	78.34	85.55	82.43	87.31	94.66	100.22	102.39	104.68	104.91	99.42	96.26	106.22	108.07	106.84	115.27	114.78	111.24	114.33	111.37	108.72	104.97	98.71	95.56	93.61	85.85	90.21	87.42	85.93	85.44	84.65	83.27	97.1	83.6	83.73	86.03	85.27	86.73	89.03	90.81	94.29	94.72	92.5	96.67	100.83	104.57	107.39	111.28	115.18	119.45	120.29	120.06	116.26	110.1	111.39	115.2	115.77	114.22	106.25	108.48	111.74	111.66	111.38	108.74	101.96	97.24	98.83	101.9	103.92	100.53	96.29	90.72	86.5	92.49	93.1	90.66	87.01	82.67	81.16	79.03	78.12	77.34	77.39	79.5	77.02	70.13	71.12	68.8	65.38	63.33	61.21	53.51	47.85	48.72	50.94	64.24	66.98	66.81	66.17	66	65.47	69.8	73.94	77.29	79.65	81.42	82.94	84.43	84.78	83.76	81.35	74.52	82.24	85.44	85.33	85.21	86.13	86.94	86.01	82.53	77.42	67.23	75.84	78.44	80.77	79.53	78.2	73.04	74.83	75.97	73.58	69.65	75.1	76.33	73.25	68.71	66.04	62.66	55.49	56.09	67.86	71.91	70.51	68.98	58.57	64.27	63.12	63.21	67.96	70.1	77.38	77.96	79.5	81.07	79.64	80.13	76.46	62.43	52.98	52.1	56.34	62.65	69.21	72.47	76.1	80.2	81.53	83.17	85.11	87.74	88.87	89.27	86.76	84.84	84.85	85.4	84.44	82.96	81.2	78.96	76.78	72.46	68.78	66.53	71.1	74.7	78.14	81.17	83.34	85.74	86.94	87.6	87.58	86.43	84.77	84.98	85.75	84.18	83.16	80.84	76.23	71.79	73.13	71.41	69.45	63.22	55.17	51.12	49.37	52.56	66.78	74.87	79.86	82.04	83.23	82.37	81.59	79.66	81.8	83.55	83.08	80.68	79.14	80.57	82.36	83.47	82.16	80.72	79.2	80.74	83.27	86.06	87.15	87.57	87.82	87.35	86.54	86.9	86.46	85.91	85.47	85.03	85.09	85.51	86.02	86.19	85.96	85.98	85.73	85.25	84.06	82.04	80.46	78.3	76.45	73.26	68.59	62.83	71.38	71.48	68.7	65.35	63.48	60.56	60.55	58.8	56.51	54.2	52.36	52.33	56.88	65.68	64.5	62.55	61.15	58.02	60.66	61.95	58.41	56.29	63.39	65.03	64.37	66.3	65.74	65.07	66.66	66.02	68.09	69.25	71.53	72.88	73.47	76.83	80.78	84.12	87.19	88.41	89.86	90.04	89.51	88.77	88.06	87.14	86.66	85.3	83.63	83.52	85.11	86.11	87.05	87.16	86.99	86.81	85.61	86.14	87.85	86.89	83.32	78.64	74.13	69.37	66.46
-9999	-9999	-9999	-9999	-9999	-9999	-9999	-9999	-9999	-9999	-9999	-9999	-9999	-9999	-9999	-9999	-9999	-9999	-9999	-9999	-9999	-9999	-9999	-9999	-9999	-9999	-9999	-9999	-9999	-9999	-9999	-9999	-9999	-9999	-9999	-9999	-9999	-9999	-9999	-9999	-9999	-9999	-9999	-9999	-9999	152.64	150.85	148.95	147.12	147.09	146.36	144.26	142.82	140.75	136.8	132.55	127.87	120.59	113.93	108.2	102.08	94.5	92.8	101.93	104.96	108.44	108.44	110.85	119.43	128.69	134.77	135.92	136.41	136.96	136.76	135.75	135.13	134.73	133.09	130.27	124.54	116.56	124.48	130.46	131.21	129.83	128.49	127.41	125.59	123.26	121.46	119.1	117.07	114.65	111.69	106.17	99.16	100.88	108.54	115.01	119.52	122.1	121.84	120.25	116.89	112.3	105.22	102.6	112.47	120.5	122.24	122.8	123.3	124.14	124.1	123.68	123.46	123.16	122.26	120.92	119.16	117.39	114.77	111.74	105.44	96.63	99.64	108.74	102.69	112.37	119.71	122.4	122.51	122.13	121.49	119.65	112.79	109.32	116.23	116.71	112.16	106.83	99.03	94.28	86.95	78.42	73.67	73.51	73.11	82.16	100.93	103.17	100.71	98.82	97.89	93.26	88.96	85.54	82.75	77.62	77.7	78.52	87.88	95.3	96.89	97.66	99.76	99.74	95.83	90.13	96.8	98.44	109.27	113.63	112.67	106.29	108.14	106.46	98.84	98.92	95.46	87.69	86.61	80.86	85.07	79.16	83.97	83.83	89.69	89.27	97.92	90.57	88.85	88.58	90.57	91.12	93.1	92.85	96.12	97.32	94.81	98.77	103.81	108.03	113.49	118.13	119.67	120.44	120.54	117.98	116.51	117.42	117.25	119.03	119.3	116.43	106.23	112.97	116.11	114.98	112.11	104.98	104	104.98	105.72	106.62	106.34	102.96	97.26	90.23	95.1	97.85	96.82	93.08	87.64	87.51	83.44	79.2	77	75.54	75.08	77.6	77.26	73.26	69.11	65.64	62.34	60.91	57.07	50.71	47.42	47.46	50.51	67.23	68.52	70.97	70.39	68.62	66.65	69.1	72.06	75.99	78.25	79.83	81.81	83.51	84.15	82.02	77.41	75.88	82.42	83.6	82.69	83.05	85.32	86.33	84.66	80.72	76.91	71.13	70.83	78.02	79.24	78.67	75.25	71.16	70.44	71.18	69.2	68.54	74.74	72.14	67.05	60.52	57.32	55.19	54.04	51.32	57.03	62.55	61.66	64.86	56.32	55.93	56.04	53.32	53.77	56.52	62.34	66.64	70.96	73.54	73.18	74.58	71.73	63	51.68	52.92	53.76	63.64	74.66	78.53	79.45	78.31	80.93	82.37	84.87	87.32	88.13	86.95	85.01	82.09	82.34	83.62	82.53	80.84	78.92	77.01	73.16	71.01	65.08	70.61	72.73	74.05	76.85	81.75	83.81	85.26	86.04	86.72	86.64	85.63	83.74	84.48	84.67	83.51	80.93	79.47	76.16	71.74	69.05	72.08	69.71	62.26	55.15	52.57	49.96	53.33	71.63	76.54	80.28	79.7	80.44	78.4	77.45	78.33	81.33	80.37	78.88	77.79	79.96	81.94	83.4	83.4	81.92	80.2	78.42	82.01	85.15	86.71	86.93	87.12	87.07	86.82	85.97	85.91	85.67	84.88	84.39	83.94	83.86	84.47	84.71	85.41	85.45	85.5	85.53	84.05	83.26	79.68	77.17	75.03	76.2	74.61	70.14	62.01	68.76	70.32	68.14	62.15	59.26	57.46	58.22	57.81	54.7	52.7	52.78	52.11	56.77	59.61	60.3	59.97	58.4	55.19	56.13	56.58	55.3	59.34	64.35	65.97	66.5	67.1	66.76	68	69.21	70.66	71.91	72.86	74.64	75.41	74.53	79.85	83.26	85.5	86.27	87.64	89.41	89.92	89.41	88.35	87.67	86.99	86.32	85.35	83.82	80.13	85.12	87.09	86.27	85.64	84.45	84.1	84.4	87.19	88.18	86.7	84.85	81.23	77.3	69.97	66.19
-9999	-9999	-9999	-9999	-9999	-9999	-9999	-9999	-9999	-9999	-9999	-9999	-9999	-9999	-9999	-9999	-9999	-9999	-9999	-9999	-9999	-9999	-9999	-9999	-9999	-9999	-9999	-9999	-9999	-9999	-9999	-9999	-9999	-9999	-9999	-9999	-9999	-9999	-9999	-9999	-9999	-9999	-9999	-9999	-9999	-9999	150.66	148.96	145.49	143.58	144.21	142.11	140.28	139.48	137.04	134.46	131.6	125.3	118.88	112.59	106.56	101.82	97.18	93.49	101.73	105.01	104.24	107.23	114.45	122.58	129.04	130.71	132.96	135.43	135.79	135.5	134.36	134.36	133.63	130.74	126.47	118.95	116.97	125.93	127.13	126.01	124.55	123.85	122.69	121.51	118.99	117.76	114.34	111.66	107.68	101.15	103.18	113.33	122.34	123.04	122.91	122.3	121.3	118.22	114.85	108.59	104.78	109.42	114.02	122.15	123.74	124.43	124.9	125.36	124.37	123.53	123.26	122.61	121.31	118.77	116.45	114	109.07	105.25	99.12	99.29	110.56	116.36	110.55	115.79	121.33	123.17	123.23	123.29	121.68	116.7	115.84	117.93	119.77	117.19	112.44	106.59	102.48	98.17	93.88	87.51	80.34	75.81	73.66	77.44	98.96	105.06	102.99	101.17	100.3	97.65	93.34	90.98	85.27	80.94	74.68	75.54	85.92	92.52	90.52	92.53	94.75	93.25	93.37	86.26	92.12	99.98	108.66	111.15	107.93	99.55	103.93	103.06	94.16	92.65	90.38	84.01	77.74	76.22	78.95	86.27	92.75	94.95	93.9	94.87	95.16	95.72	94.76	93.5	95.66	92.86	95.88	96.98	97.55	100	97.34	99.58	104.47	111.42	116.38	118.79	119.85	120.42	120.88	120.05	120.89	122.14	121.83	121.24	120.99	116.44	114.43	118.41	117.9	115.31	111.81	111.66	111.08	110.13	110.18	110.12	107.69	101.88	93.59	96.72	102.77	102.1	99.05	93.22	92.15	89.2	84.52	79.84	77.19	74.94	73	74.48	76.03	72.89	65.49	65.65	61.31	58.09	54.53	49.6	47.48	47.65	52.16	68.71	70.41	72.84	70.82	68.61	67.58	69.22	70.97	74.46	77.04	78.78	81.41	82.71	82.23	80.63	75.56	76.41	79.86	80.4	79.13	81.91	84.76	85.13	82.95	79.85	76.87	68.94	64.08	75.71	77.8	77.32	75.14	72.32	64.44	65.09	62.84	72.05	73.18	64.61	57.38	52.93	51.32	49.63	48.96	48.55	50.63	53.58	53.1	56.27	52.3	51.67	49.95	49.37	49.92	50.02	51.43	57.32	61.51	66.54	66.75	66.48	63.94	60.12	54.3	52.03	52.43	63.35	76.97	79.13	79.65	80.83	81.57	82.46	84.51	86.79	86.14	84.61	83.12	79.97	78.33	80.64	80.17	78.33	76.44	74.87	71.85	66.44	64.48	71.01	72.35	75.59	78.45	81.45	84.08	85.46	85.41	85.32	85.24	84.36	82.88	83.38	84.01	83.07	80.83	77.23	75.45	70.95	66.02	71.62	68.04	60.92	53.08	52.06	49.6	55.81	72.45	77.08	79.03	79.17	76.92	75.99	74.06	75.81	76.36	75.81	76.3	79.21	81.21	82.73	82.6	82.56	80.39	78.84	79.63	83.15	85.49	86.57	86.61	86.21	86.41	86.24	85.4	85.43	85.3	84.46	83.56	82.6	82.97	83.74	84.5	85.26	85.75	86.09	84.85	83.99	83.6	82.26	79.73	74.97	71.72	71.96	70.54	65.58	61.28	66.93	65.07	59.3	56.09	54.68	54.22	52.62	51.98	51.76	52.4	51.03	54.29	58.7	56.29	54.74	53.01	53.61	54.33	54.18	54.5	54.63	58.62	65.12	65.07	64.54	66.45	68.37	70.59	72.06	73.15	74.24	76.6	74.24	79.73	82.28	83.16	84.44	84.82	87.19	88.97	89.78	89.22	87.59	86.23	85.09	84.9	84.47	83.54	82.51	85.37	86.89	86.41	83.19	81.89	84.16	86.98	88.27	88.38	87.76	86.41	83.85	78.51	72.11	66.88
