ncols    157
nrows    91
xllcorner    338966.945024
yllcorner    555645
cellsize    10.000000
NODATA_value    -9999
12.547	12.588	12.615	12.62	12.625	12.635	12.662	12.7	12.75	12.793	12.86	13.363	13.66	13.87	14.078	14.248	13.945	12.76	12.268	11.925	11.883	11.925	11.94	11.873	12.262	13.19	14.432	15.072	15.42	14.56	14.66	14.688	14.33	14.365	14.402	14.425	14.367	14.15	13.813	12.012	9.5616	8.9916	9.355	10.69	14.053	13.252	13.135	12.643	12.152	11.735	11.748	11.765	11.785	11.797	11.815	11.832	11.848	11.9	11.967	12	11.995	11.988	11.985	11.977	11.975	11.965	11.965	11.955	14.35	11.658	11.29	11.238	11.87	12.107	12.14	11.717	9.9875	7.6266	5.9808	5.9835	6.5336	7.019	7.4775	8.1811	9.17	9.8952	10.034	10.341	11.629	12.464	13.906	13.809	13.911	13.915	13.813	13.92	13.818	16.338	17.388	7.5289	7.3688	7.4422	7.5063	7.5306	7.5194	7.3704	7.2724	7.3055	7.4792	7.4593	7.9586	8.3144	8.8689	9.9338	11.029	12	13.242	14.485	16.26	15.568	16.26	16.26	15.662	15.615	15.568	15.502	16.26	15.305	15.137	14.803	14.815	15.1	15.357	15.4	15.33	15.26	15.123	14.365	12.963	12.078	11.985	11.98	11.97	11.973	11.988	12.005	12.018	12.07	12.15	12.345	12.635	12.912	12.98	12.985	12.995	13	13.02
12.498	12.54	12.59	12.605	12.61	12.615	12.623	12.625	12.643	12.67	12.715	12.85	13.64	13.965	14.152	14.185	13.225	12.455	12.182	11.867	11.867	11.91	11.943	11.98	11.965	11.893	12.03	13.498	15.42	14.438	14.52	14.67	14.605	14.375	14.39	14.383	14.18	13.945	13.71	11.749	9.2792	9.0519	9.3125	14.005	11.813	12.92	13.408	12.938	12.32	11.765	11.755	11.768	11.785	11.803	11.815	11.835	11.867	11.935	12.005	12.015	12.012	12.005	12.002	11.995	11.99	11.985	11.98	11.975	11.967	14.344	14.338	12.008	12.04	12.07	12.1	12.119	11.363	9.5875	7.4618	5.9411	5.8835	6.4453	6.9454	7.4073	7.9062	8.495	9.1525	9.6703	9.8933	10.245	10.648	11.049	11.488	10.902	9.565	8.5175	8.035	7.7466	7.6339	7.478	7.3882	7.292	7.3281	7.374	7.3293	7.2525	7.185	7.3337	7.7627	8.0357	8.5434	9.7666	10.922	11.755	12.971	14.177	14.672	15.185	16.26	16.26	15.807	15.762	15.715	15.668	15.615	15.475	16.26	16.26	15.44	15.38	15.235	15.385	15.373	15.303	15.238	15.175	15.11	14.463	13.092	12.07	12.005	12	11.995	11.985	11.995	12.008	12.03	12.105	12.19	12.365	12.655	12.902	12.94	12.945	12.955	12.96	12.97
12.445	12.492	12.545	12.582	12.595	12.598	12.605	12.613	12.615	12.623	12.627	12.65	12.855	13.852	14.165	13.383	12.418	12.175	11.953	11.865	11.875	11.887	11.91	11.935	11.97	12.002	11.988	11.91	15.42	15.42	14.373	14.523	14.685	14.52	14.37	14.215	14.018	13.85	13.69	11.137	9.0398	9.0741	9.2925	14.055	11.373	12.465	13.475	13.29	12.385	11.828	11.755	11.775	11.787	11.805	11.822	11.84	11.902	11.973	12.027	12.035	12.027	12.025	12.018	12.015	12.005	12.005	11.995	11.992	11.985	11.977	14.332	14.505	12.005	12.03	12.063	12.095	12.082	10.953	9.2675	7.9728	6.2583	5.7129	5.9527	6.442	6.8596	7.4316	7.8449	8.1025	8.28	8.4225	8.36	8.3025	8.0844	7.722	7.6113	7.4947	7.3826	7.3383	7.3279	7.3364	7.2684	7.3302	7.3504	7.1597	7.0196	7.2134	7.9137	8.831	9.2518	9.7162	10.93	15.505	15.55	15.5	14.998	15.365	16.26	16.26	15.518	15.9	15.857	15.813	15.768	15.705	15.525	15.377	15.383	15.387	16.26	15.402	15.408	15.412	15.365	15.31	15.255	15.195	15.11	14.063	13.098	12.1	12.027	12.02	12.015	12.005	12.002	12.015	12.06	12.145	12.23	12.39	12.675	12.887	12.9	12.91	12.915	12.922	12.93
12.395	12.443	12.498	12.553	12.575	12.585	12.588	12.595	12.6	12.605	12.613	12.615	12.625	12.617	12.625	12.46	12.26	12.06	11.92	11.922	11.932	11.945	11.955	11.965	11.975	11.988	12.008	12.027	12.002	15.42	15.42	14.342	14.592	14.69	14.393	14.22	14.088	13.97	13.56	10.817	8.9768	9.1025	9.52	14.057	11.79	12.717	13.512	13.375	12.443	11.928	11.76	11.775	11.795	11.807	11.825	11.87	11.938	12.008	12.055	12.053	12.045	12.043	12.035	12.03	12.025	12.02	12.015	12.008	11.998	11.995	12	12.005	14.327	12.02	12.033	12.055	12.088	11.965	10.545	9.39	8.3442	6.4222	5.6321	5.7382	6.0482	6.401	6.9318	7.4634	7.7021	7.7389	7.7494	7.7025	7.3558	7.2303	7.2182	7.2167	7.1959	7.1532	7.1026	7.1643	7.3496	7.2122	6.9381	6.9376	7.4991	8.7745	9.6922	10.246	10.529	11.088	14.54	16.719	17.705	17.32	16.622	16.26	15.825	15.578	15.775	15.957	15.912	15.865	15.785	15.585	15.373	15.32	15.325	16.26	15.338	15.342	15.352	15.383	15.4	15.355	15.297	15.245	14.955	13.655	12.842	12.265	12.08	12.068	12.05	12.033	12.02	12.023	12.1	12.18	12.27	12.41	12.695	12.85	12.86	12.87	12.875	12.885	12.89
12.342	12.393	12.447	12.502	12.555	12.565	12.572	12.578	12.585	12.59	12.595	12.602	12.605	12.58	12.543	12.367	12.17	11.992	11.97	11.98	11.99	12	12.012	12.023	12.035	12.045	12.055	12.065	12.08	12.095	11.925	15.42	14.435	14.658	14.65	14.342	14.215	14.1	13.26	10.66	8.9636	9.1713	9.565	14.059	12.223	12.885	13.545	13.408	12.525	12.04	11.768	11.777	11.795	11.815	11.838	11.905	11.975	12.043	12.075	12.068	12.065	12.055	12.055	12.045	12.043	12.035	12.033	12.02	12.015	12.015	12.023	12.025	12.035	14.321	14.315	14.309	12.063	12.082	11.73	10.6	9.7025	8.815	7.7648	6.011	5.2169	5.116	5.542	6.0067	6.3453	6.6267	6.7896	6.8816	6.9397	6.8286	6.7781	6.7603	6.7459	6.7357	6.722	6.7331	6.9135	7.2194	8.1781	9.7345	10.379	10.581	10.73	11.072	12.145	14.588	13.555	16.337	17.365	17.163	16.863	16.26	16.26	15.748	15.97	16.012	15.965	15.855	15.648	15.432	15.268	15.265	15.273	15.275	16.26	15.275	15.303	15.332	15.363	15.383	15.345	15.285	14.665	14.015	13.805	13.488	12.818	12.315	12.26	12.24	12.217	12.137	12.135	12.22	12.307	12.438	12.72	12.813	12.82	12.83	12.835	12.845	12.85
12.295	12.345	12.4	12.455	12.508	12.55	12.555	12.563	12.565	12.575	12.578	12.585	12.582	12.557	12.475	12.275	12.082	12.02	12.03	12.04	12.05	12.06	12.07	12.08	12.09	12.102	12.117	12.15	12.197	12.242	12.207	11.953	15.42	14.54	14.693	14.592	14.383	14.215	12.785	10.403	8.9631	9.2034	9.6875	14.06	12.875	13.203	13.665	13.42	12.602	12.16	11.815	11.785	11.797	11.818	11.873	11.94	12.01	12.078	12.092	12.085	12.08	12.075	12.07	12.065	12.057	12.053	12.043	12.033	12.035	12.035	12.045	12.045	12.05	12.057	12.065	12.075	14.303	14.5	12.095	11.74	10.887	10.018	9.1425	8.0047	5.958	4.9631	5.0858	5.3607	5.6487	5.9369	6.1297	6.3229	6.5804	6.4457	6.4231	6.4663	6.5299	6.6137	6.738	7.0749	7.8963	9.34	10.409	10.828	11.063	11.063	12.088	14.685	14.637	14.005	14	14.38	17.025	16.823	16.615	16.03	16.17	16.26	16.26	16.26	16.26	16.26	16.26	16.26	16.26	16.26	16.26	16.26	16.26	15.227	15.255	15.283	15.313	15.342	15.367	15.307	14.9	15.047	14.76	14.957	14.365	13.525	12.685	12.49	12.453	12.283	12.203	12.26	12.345	12.467	12.717	12.775	12.78	12.79	12.8	12.805	12.815
12.245	12.295	12.35	12.405	12.46	12.515	12.537	12.545	12.553	12.555	12.565	12.568	12.565	12.537	12.385	12.185	12.068	12.075	12.088	12.1	12.11	12.12	12.13	12.14	12.152	12.182	12.23	12.277	12.328	12.373	12.422	12.295	15.42	13.62	14.643	14.68	14.57	14.2	12.5	10.267	8.9514	9.175	10.232	14.062	13.883	13.918	13.832	13.398	12.682	12.273	11.885	11.785	11.805	11.84	11.908	11.977	12.045	12.107	12.107	12.105	12.095	12.095	12.085	12.082	12.072	12.063	12.047	12.055	12.055	12.055	12.065	12.065	12.07	12.075	12.085	12.092	12.1	12.105	14.298	14.292	11.765	10.905	10.045	9.185	8.375	8.1	7.2481	6.2201	5.6201	5.6359	5.7586	6.0506	6.6194	6.6099	6.7294	6.9289	7.475	7.9275	8.445	8.9425	9.46	10.635	11.598	12.102	12.627	14.781	14.733	13.63	13.973	14.14	14.273	14.405	15.515	16.48	16.297	16.203	16.242	16.14	16.152	15.995	15.775	15.555	15.338	15.16	15.145	15.155	15.152	15.127	16.26	16.26	16.26	16.26	16.26	17.11	15.328	15.277	17.11	15.185	15.037	15.635	15.63	14.835	14.057	12.967	12.65	12.44	12.315	12.31	12.38	12.498	12.707	12.735	12.74	12.75	12.76	12.765	12.775
12.193	12.248	12.303	12.357	12.412	12.465	12.515	12.527	12.535	12.54	12.545	12.553	12.543	12.485	12.295	12.133	12.125	12.135	12.145	12.155	12.165	12.178	12.19	12.217	12.262	12.313	12.36	12.408	12.457	12.505	12.553	12.58	12.36	15.42	13.967	14.69	14.658	14.018	12.438	10.282	9.1119	9.205	10.623	14.064	13.98	13.95	13.697	13.255	12.787	12.39	11.992	11.787	11.81	11.875	11.945	12.012	12.082	12.13	12.125	12.12	12.115	12.11	12.105	12.095	12.082	12.068	12.065	12.075	12.075	12.075	12.085	12.085	12.09	12.095	12.105	12.11	12.115	12.125	12.16	12.245	14.286	14.28	10.875	10.015	9.155	8.7825	8.6275	8.4	7.9199	7.4105	7.2159	7.2171	7.8896	7.7901	8.4064	9.416	9.603	9.4425	9.9575	10.488	11	11.637	12.938	13.81	14.83	12.508	11.002	11.932	13.08	13.643	13.87	14.098	14.44	16.152	16.14	16.058	16.115	16.21	16.055	15.835	15.617	15.402	15.185	15.085	15.092	15.095	15.065	15.072	15.1	15.127	15.158	15.188	15.217	15.248	17.11	17.11	14.508	16.51	16.51	16.51	16.51	16.51	15.047	13.963	13.125	12.598	12.438	12.415	12.425	12.525	12.69	12.695	12.703	12.71	12.72	12.76	12.992
12.145	12.197	12.252	12.307	12.363	12.418	12.473	12.51	12.518	12.525	12.53	12.535	12.52	12.4	12.217	12.172	12.185	12.195	12.205	12.215	12.227	12.252	12.297	12.345	12.393	12.443	12.49	12.537	12.588	12.635	12.682	12.732	12.703	12.315	15.42	14.537	14.66	14.38	12.713	10.398	9.3425	9.3275	11.585	14.066	14.015	13.918	13.52	13.137	12.803	12.467	12.102	11.807	11.842	11.91	11.98	12.047	12.117	12.148	12.145	12.135	12.135	12.125	12.115	12.102	12.088	12.085	12.085	12.095	12.095	12.1	12.105	12.105	12.11	12.115	12.125	12.13	12.135	12.148	12.215	12.303	12.387	12.39	14.275	14.269	9.985	9.465	9.305	9.065	8.7675	8.7175	8.8475	9.445	10.345	11.252	11.845	11.876	11.225	10.94	11.46	11.99	12.523	13.05	13.697	14.878	13.14	11.258	10.8	10.965	11.467	12.35	13.12	13.402	13.745	15.69	16.032	15.9	15.83	15.943	15.898	15.682	15.465	15.245	15.053	15.027	15.035	15.005	14.992	15.023	15.053	15.082	15.107	15.137	15.168	15.197	15.227	14.32	13.565	13.865	13.505	13.41	13.658	16.51	14.45	14.62	14.178	13.568	12.65	12.527	12.51	12.553	12.65	12.655	12.742	13.005	13.435	13.955	14.445
12.095	12.15	12.205	12.26	12.315	12.367	12.422	12.477	12.502	12.505	12.515	12.515	12.482	12.31	12.22	12.23	12.24	12.252	12.262	12.287	12.332	12.377	12.428	12.475	12.523	12.572	12.62	12.668	12.717	12.765	12.813	12.863	12.908	12.89	14.758	15.42	15.42	15.42	12.02	10.358	9.3779	9.4	12.409	14.068	14.047	13.795	13.445	13.107	12.765	12.422	12.095	11.877	11.877	11.945	12.015	12.085	12.15	12.165	12.16	12.155	12.15	12.135	12.123	12.107	12.105	12.105	12.107	12.115	12.115	12.12	12.125	12.125	12.13	12.135	12.145	12.15	12.155	12.185	12.268	12.355	12.443	12.527	12.45	11.675	14.263	14.257	14.252	9.7175	9.52	9.58	10.072	10.965	11.86	12.341	12.71	12.932	12.738	12.435	12.965	13.463	13.715	14.974	14.926	12.523	11.385	10.957	10.895	10.902	11.23	11.627	12.057	12.637	13.58	15.547	15.89	15.715	15.54	15.588	15.727	15.525	15.307	15.09	14.967	14.975	14.945	14.92	14.945	14.973	15.002	15.033	15.063	15.088	15.117	15.148	15.047	13.818	13.162	13.195	13.053	13.193	13.265	13.338	16.51	14.693	15.002	14.635	13.457	12.79	12.662	12.762	13.045	13.525	14.045	14.56	15.08	15.467	15.7
12.047	12.102	12.155	12.21	12.265	12.32	12.375	12.428	12.477	12.492	12.495	12.5	12.42	12.28	12.28	12.29	12.3	12.322	12.363	12.412	12.463	12.508	12.557	12.607	12.652	12.703	12.75	12.797	12.848	12.895	12.938	12.973	13.008	13.213	14.918	15.42	14.64	13.852	11.427	10.3	9.5649	9.5872	12.955	14.069	13.998	13.68	13.328	12.973	12.62	12.338	12.182	12.075	11.98	11.982	12.053	12.12	12.178	12.185	12.175	12.172	12.155	12.143	12.127	12.117	12.125	12.125	12.13	12.135	12.135	12.14	12.145	12.145	12.155	12.155	12.165	12.17	12.175	12.235	12.322	12.408	12.495	12.582	12.668	12.463	11.645	10.895	10.668	14.246	14.24	10.72	11.585	12.39	12.77	12.99	13.215	13.44	13.655	13.655	13.68	15.071	15.023	13.28	13.143	12.348	11.297	11.02	10.995	10.965	11.098	11.495	11.895	12.342	13.535	15.285	15.58	15.425	15.275	15.248	15.482	15.373	15.155	14.947	14.912	14.89	14.845	14.867	14.898	14.925	14.953	14.982	15.012	15.043	15.068	15.098	14.815	13.685	13.17	12.768	12.723	12.773	12.825	12.885	13.168	16.51	14.41	15.235	14.66	14.14	13.96	13.87	14.325	15.17	15.69	16.145	16.415	16.628	16.78
11.998	12.053	12.107	12.162	12.215	12.273	12.325	12.38	12.435	12.473	12.48	12.475	12.345	12.328	12.338	12.357	12.398	12.447	12.495	12.543	12.592	12.637	12.688	12.738	12.777	12.813	12.848	12.875	12.895	12.915	12.935	12.955	12.975	13.043	14.02	14.693	15.42	12.845	11.34	10.293	9.6349	9.6898	12.758	14.071	13.865	13.512	13.158	12.832	12.633	12.5	12.38	12.28	12.175	12.082	12.088	12.155	12.205	12.2	12.193	12.175	12.162	12.148	12.137	12.14	12.145	12.145	12.15	12.155	12.155	12.162	12.165	12.165	12.175	12.175	12.18	12.188	12.21	12.287	12.375	12.463	12.547	12.635	12.723	12.81	12.473	11.65	11.342	11.12	11.357	15.65	15.457	15.409	13.273	13.49	13.65	13.77	13.855	13.883	15.167	15.119	12.905	12.773	12.637	12.297	11.313	11.12	11.09	11.063	11.06	11.365	11.783	12.467	13.5	15.14	15.3	15.175	15.065	15	15.168	15.215	14.995	14.852	14.835	14.777	14.787	14.818	14.848	14.877	14.905	14.932	14.963	14.992	15.01	14.857	14.527	13.863	13.25	12.785	12.71	12.645	12.58	12.553	12.61	12.758	16.51	14.695	15.383	15.012	15.18	15.15	15.873	16.707	16.962	17.045	17.05	17.03	17.02
11.95	12.005	12.057	12.113	12.168	12.223	12.277	12.332	12.385	12.44	12.465	12.43	12.375	12.393	12.432	12.48	12.527	12.578	12.617	12.652	12.688	12.715	12.735	12.755	12.775	12.795	12.815	12.835	12.855	12.875	12.895	12.915	12.943	13.035	13.223	14.777	15.42	15.42	11.351	10.348	9.7285	9.734	12.197	14.073	13.697	13.348	13.1	12.953	12.82	12.69	12.585	12.485	12.385	12.285	12.19	12.193	12.223	12.213	12.195	12.182	12.168	12.158	12.155	12.16	12.165	12.165	12.17	12.175	12.175	12.185	12.185	12.185	12.195	12.195	12.2	12.205	12.255	12.342	12.428	12.515	12.602	12.69	12.777	12.865	12.935	12.445	12.012	12.03	12.725	13.11	13.318	13.48	15.36	13.68	13.765	13.85	15.216	15.553	13.915	13.615	12.915	12.393	12.127	11.992	11.325	11.145	11.155	11.143	11.133	11.24	11.85	12.655	13.545	14.89	14.982	14.947	14.9	14.912	14.935	15	14.852	14.78	14.717	14.713	14.742	14.768	14.797	14.828	14.857	14.883	14.915	14.848	14.563	14.22	13.982	13.953	13.47	12.938	12.85	12.79	12.727	12.66	12.645	12.75	16.51	16.51	15.63	16.025	16.343	16.723	17.08	17.038	17.095	17.08	17.07	17.052	17.04
11.9	11.955	12.01	12.065	12.117	12.175	12.227	12.283	12.338	12.393	12.44	12.432	12.46	12.492	12.527	12.555	12.575	12.595	12.615	12.635	12.655	12.675	12.695	12.715	12.735	12.755	12.775	12.795	12.815	12.835	12.855	12.875	12.92	13.027	13.14	13.825	14.205	15.42	11.885	10.4	9.8125	9.7757	11.752	14.075	13.578	13.408	13.273	13.14	13.008	12.895	12.795	12.693	12.59	12.488	12.385	12.29	12.238	12.217	12.205	12.188	12.178	12.175	12.175	12.18	12.185	12.185	12.195	12.195	12.195	12.205	12.205	12.207	12.215	12.215	12.22	12.235	12.307	12.395	12.482	12.57	12.658	12.745	12.832	12.918	13.005	13.033	12.787	13.115	13.307	13.42	13.5	13.59	13.67	15.312	15.602	15.264	14.045	14.015	13.885	13.98	13.665	12.963	12.26	11.68	11.25	11.125	11.155	11.193	11.248	11.377	11.873	15.52	15.52	14.738	14.685	14.6	14.265	14.805	14.818	14.787	14.73	14.658	14.633	14.662	14.693	14.72	14.748	14.775	14.813	14.803	14.6	14.258	14.023	13.992	14.08	14.16	14.185	13.57	13.135	12.963	12.87	12.807	12.908	13.313	13.89	14.905	16.51	16.51	17.165	17.12	17.023	16.927	17.095	17.1	17.09	17.075	17.06
11.852	11.908	11.963	12.015	12.07	12.125	12.18	12.235	12.287	12.345	12.425	12.438	12.455	12.475	12.495	12.515	12.535	12.555	12.575	12.595	12.615	12.635	12.652	12.67	12.69	12.71	12.73	12.75	12.77	12.79	12.81	12.83	12.912	13.02	13.145	13.203	14.165	13.835	15.42	10.301	9.6505	9.6663	11.828	14.007	13.727	13.592	13.46	13.328	13.205	13.1	13	12.895	12.795	12.688	12.555	12.432	12.36	12.293	12.232	12.197	12.19	12.195	12.195	12.203	12.205	12.205	12.215	12.215	12.215	12.225	12.225	12.23	12.235	12.235	12.24	12.275	12.363	12.447	12.533	12.615	12.7	12.783	12.865	12.95	13.03	13.115	13.235	13.33	13.41	13.5	13.58	13.67	13.75	13.84	13.92	14.018	14.145	14.135	13.86	13.955	14.045	13.715	13.01	12.307	11.537	11.345	11.418	11.53	11.693	11.863	12.082	15.52	14.188	14.64	14.598	12.293	11.42	12.727	14.63	14.672	14.61	14.563	14.582	14.61	14.64	14.668	14.705	14.73	14.607	14.305	14.07	14.033	14.11	14.19	14.28	14.36	14.45	14.393	13.78	13.383	13.16	13.117	13.773	14.57	14.995	15.613	16.605	16.51	17.09	17.027	16.93	16.835	17.027	17.12	17.11	17.095	17.08
11.803	11.857	11.912	11.967	12.023	12.075	12.133	12.19	12.252	12.365	12.432	12.425	12.415	12.425	12.445	12.465	12.485	12.505	12.525	12.545	12.565	12.585	12.605	12.625	12.645	12.665	12.685	12.705	12.725	12.745	12.765	12.803	12.905	13.02	13.15	13.215	13.22	14.457	15.42	10.208	9.5643	9.6306	12.123	14.076	13.912	13.78	13.648	13.515	13.408	13.305	13.205	13.102	12.973	12.822	12.675	12.59	12.52	12.447	12.38	12.31	12.275	12.277	12.28	12.283	12.287	12.29	12.293	12.3	12.3	12.305	12.31	12.31	12.318	12.32	12.322	12.305	12.35	12.43	12.51	12.59	12.67	12.752	12.835	12.92	13	13.098	13.29	13.41	13.49	13.58	13.66	13.75	13.83	13.92	14	14.11	14.245	14.252	13.87	13.93	14.025	14.11	13.76	13.06	12.015	11.69	11.842	12.012	12.182	12.35	12.637	15.52	14.313	14.54	13.99	11.365	11.357	11.37	12.3	13.813	14.51	14.5	14.53	14.557	14.598	14.633	14.582	14.35	14.127	14.072	14.135	14.22	14.305	14.39	14.475	14.56	14.648	14.73	14.553	14.053	13.723	14.225	14.947	15.662	16.008	16.715	17.04	17.008	16.97	16.93	16.837	16.74	16.902	17.142	17.13	17.115	17.1
11.755	11.807	11.865	11.918	11.975	12.037	12.1	12.165	12.28	12.42	12.428	12.418	12.405	12.39	12.405	12.425	12.445	12.465	12.485	12.505	12.525	12.545	12.565	12.585	12.605	12.625	12.645	12.665	12.685	12.705	12.725	12.787	12.9	13.023	13.152	13.23	13.09	13.715	15.42	10.751	9.4622	9.8024	12.052	14.078	14.1	13.967	13.83	13.715	13.615	13.515	13.387	13.238	13.085	12.928	12.822	12.75	12.678	12.605	12.535	12.465	12.395	12.398	12.393	12.4	12.4	12.405	12.41	12.41	12.418	12.42	12.422	12.428	12.43	12.43	12.45	12.443	12.34	12.393	12.475	12.557	12.64	12.72	12.8	12.88	12.96	13.115	13.328	13.485	13.57	13.66	13.74	13.83	13.91	14	14.082	14.21	14.348	14.37	13.922	13.9	14	14.098	14.175	13.81	12.715	12.35	12.415	12.56	12.7	12.842	13.215	15.52	14.398	14.527	12.838	11.342	11.357	11.375	11.38	12.29	14.245	14.432	14.49	14.54	14.527	14.375	14.195	14.123	14.165	14.25	14.335	14.42	14.505	14.59	14.675	14.76	14.845	14.93	15.015	14.838	14.97	15.38	15.818	16.363	16.845	16.957	16.92	16.89	16.852	16.82	16.745	16.65	16.77	17.102	17.15	17.135	17.12
11.705	11.76	11.818	11.88	11.95	12.012	12.075	12.203	12.375	12.428	12.418	12.41	12.402	12.385	12.37	12.385	12.405	12.425	12.445	12.465	12.485	12.505	12.525	12.545	12.565	12.585	12.605	12.625	12.645	12.665	12.69	12.783	12.898	13.027	13.158	13.24	13.13	13.027	15.42	11.377	9.6119	9.5277	11.64	13.773	14.08	14.15	14.025	13.925	13.803	13.65	13.508	13.352	13.188	13.057	12.98	12.91	12.835	12.762	12.693	12.625	12.533	12.53	12.52	12.51	12.518	12.52	12.523	12.527	12.53	12.533	12.54	12.54	12.54	12.54	12.582	12.582	12.498	12.377	12.44	12.52	12.6	12.68	12.76	12.845	12.947	13.148	13.357	13.555	13.65	13.735	13.82	13.91	13.99	14.08	14.175	14.31	14.45	14.49	14.018	13.87	13.97	14.07	14.168	14.242	14.053	13.795	13.405	13.37	13.49	15.52	15.52	14.127	14.345	14.457	12.248	11.35	11.365	11.38	11.38	11.38	12.545	14.318	14.383	14.377	14.255	14.18	14.19	14.28	14.36	14.45	14.533	14.62	14.703	14.787	14.86	14.932	15.005	15.07	15.13	15.285	15.645	16.03	16.415	16.8	16.92	16.84	16.802	16.77	16.735	16.7	16.65	16.558	16.64	16.995	17.17	17.16	17.14
11.662	11.727	11.795	11.863	11.925	11.985	12.123	12.3	12.422	12.418	12.41	12.402	12.398	12.385	12.365	12.35	12.365	12.385	12.405	12.425	12.445	12.46	12.48	12.5	12.52	12.54	12.56	12.58	12.6	12.62	12.668	12.777	12.902	13.033	13.162	13.252	13.182	13.165	15.42	15.42	10.434	9.5101	11.109	13.703	14.47	14.22	14.22	14.075	13.915	13.773	13.615	13.455	13.303	13.215	13.14	13.07	12.995	12.92	12.85	12.78	12.675	12.645	12.655	12.64	12.633	12.633	12.64	12.64	12.645	12.65	12.65	12.65	12.648	12.665	12.72	12.717	12.655	12.52	12.41	12.485	12.565	12.65	12.73	12.81	12.967	13.178	13.393	13.602	13.73	13.815	13.9	13.985	14.07	14.16	14.28	14.41	14.55	14.607	14.155	13.842	13.94	14.04	14.14	14.287	14.123	14.165	14.235	15.52	15.52	14.155	14.195	14.325	14.32	14.34	12.383	11.348	11.375	11.38	11.38	11.38	11.957	14.26	14.29	14.24	14.23	14.31	14.383	14.457	14.525	14.598	14.658	14.715	14.775	14.83	14.89	14.945	15.005	15.063	15.137	15.41	15.74	16.105	16.492	16.875	17.035	16.738	16.688	16.65	16.62	16.58	16.547	16.462	16.51	16.865	17.16	17.18	17.16
11.703	11.71	11.775	11.83	11.895	12.043	12.22	12.387	12.418	12.41	12.402	12.398	12.39	12.383	12.365	12.345	12.32	12.335	12.355	12.375	12.395	12.415	12.435	12.455	12.475	12.495	12.515	12.535	12.555	12.578	12.658	12.777	12.908	13.037	13.168	13.258	13.307	13.328	13.768	15.42	11.26	9.3444	10.562	14.441	14.19	14.49	14.33	14.22	14.043	13.88	13.715	13.557	13.447	13.37	13.3	13.225	13.15	13.08	13.005	12.935	12.835	12.748	12.78	12.78	12.765	12.752	12.75	12.755	12.76	12.76	12.76	12.755	12.755	12.805	12.85	12.85	12.805	12.713	12.523	12.45	12.53	12.61	12.69	12.795	12.998	13.213	13.422	13.635	13.807	13.895	13.98	14.065	14.15	14.242	14.38	14.51	14.65	14.725	14.293	13.857	13.912	14.01	14.063	14.43	14.102	15.52	15.52	14.1	14.19	14.29	14.3	14.293	14.283	14.248	14.102	12.662	11.957	11.428	11.38	11.38	12.832	14.283	14.285	14.262	14.303	14.36	14.418	14.475	14.535	14.59	14.65	14.705	14.765	14.82	14.88	14.938	14.995	15.053	15.22	15.54	15.865	16.192	16.567	16.955	17.168	16.775	16.57	16.535	16.5	16.465	16.43	16.37	16.383	16.735	17.087	17.2	17.185
13.162	13.053	11.932	11.805	11.967	12.14	12.32	12.42	12.412	12.402	12.398	12.387	12.38	12.373	12.365	12.345	12.322	12.3	12.315	12.335	12.355	12.375	12.395	12.415	12.435	12.455	12.475	12.495	12.515	12.55	12.652	12.783	12.912	13.043	13.172	13.273	13.47	13.445	13.84	15.42	15.42	9.2224	9.3236	12.801	14.324	14.557	14.455	14.22	14.22	13.985	13.82	13.685	13.605	13.53	13.46	13.385	13.31	13.24	13.165	13.095	12.995	12.877	12.885	12.912	12.9	12.89	12.875	12.87	12.87	12.867	12.865	12.865	12.877	12.953	12.98	12.977	12.95	12.865	12.745	12.535	12.492	12.575	12.658	12.818	13.033	13.242	13.455	13.668	13.87	13.975	14.06	14.145	14.23	14.34	14.48	14.61	14.75	14.845	14.428	13.912	13.885	13.982	15.52	15.52	15.52	13.793	13.842	13.965	14.105	14.23	14.285	14.25	14.285	14.313	14.363	14.295	14.265	13.67	13.035	13.438	14.242	14.322	14.352	14.387	14.34	14.35	14.41	14.465	14.525	14.58	14.64	14.695	14.755	14.813	14.87	14.928	14.985	15.07	15.35	15.67	15.992	16.315	16.65	17.03	17.29	16.942	16.545	16.42	16.38	16.348	16.31	16.273	16.27	16.602	16.96	17.21	17.218
18.07	17.968	15.8	12.123	12.105	12.248	12.395	12.412	12.402	12.398	12.387	12.38	12.373	12.367	12.36	12.348	12.325	12.297	12.28	12.295	12.315	12.335	12.355	12.375	12.395	12.415	12.435	12.455	12.475	12.537	12.655	12.785	12.918	13.047	13.178	13.307	13.58	13.787	14.258	14.599	15.37	9.4576	9.2531	11.7	14.411	14.565	14.56	14.408	14.22	14.22	13.93	13.838	13.762	13.69	13.617	13.54	13.47	13.395	13.32	13.25	13.158	13.025	13.008	13.033	13.045	13.05	13.068	13.065	13.008	12.975	12.975	12.973	13.015	13.092	13.11	13.105	13.09	13.015	12.928	12.755	12.547	12.54	12.648	12.852	13.065	13.275	13.488	13.7	13.912	14.055	14.14	14.225	14.318	14.44	14.58	14.71	14.85	14.965	14.565	14.012	15.52	15.52	14.035	14.105	13.758	13.655	13.76	13.9	14.025	14.088	14.047	14.002	14.107	14.255	14.35	14.365	14.34	14.345	14.29	14.373	14.345	14.335	14.335	14.375	14.422	14.42	14.408	14.455	14.515	14.572	14.63	14.688	14.745	14.803	14.86	14.92	14.975	15.155	15.48	15.8	16.12	16.445	16.765	17.108	17.41	17.105	16.685	16.34	16.27	16.23	16.192	16.16	16.16	16.473	16.828	17.165	17.29
21.258	20.348	17.907	13.742	12.447	12.525	12.443	12.402	12.398	12.387	12.38	12.373	12.367	12.36	12.352	12.348	12.328	12.305	12.275	12.26	12.27	12.29	12.31	12.33	12.35	12.37	12.39	12.41	12.438	12.53	12.66	12.79	12.922	13.053	13.18	13.375	13.668	13.918	14.065	14.178	15.37	10.219	9.0408	9.8768	14.294	14.4	14.572	14.512	14.348	14.193	14.22	14.22	14.22	14.22	14.22	13.7	13.63	13.555	13.48	13.41	13.32	13.188	13.19	13.23	13.338	13.352	13.355	13.318	13.26	13.18	13.105	13.088	13.16	13.232	13.238	13.235	13.227	13.158	13.075	12.973	12.76	12.565	12.672	12.885	13.098	13.307	13.523	13.732	13.945	14.13	14.22	14.305	14.41	14.54	14.68	14.813	14.95	15.082	14.703	14.148	15.52	13.713	13.74	13.71	13.62	13.59	13.67	13.727	13.74	13.752	13.748	13.707	13.818	13.953	14.162	14.393	14.405	14.377	14.328	14.373	14.355	14.335	14.318	14.342	14.365	14.44	14.49	14.463	14.505	14.563	14.62	14.678	14.735	14.795	14.85	14.91	14.998	15.285	15.607	15.93	16.25	16.573	16.895	17.215	17.53	17.275	16.848	16.425	16.163	16.12	16.08	16.04	16.045	16.34	16.672	16.918	17.245
21.352	21.235	19.415	16.01	12.852	12.717	12.525	12.398	12.39	12.38	12.373	12.367	12.36	12.352	12.345	12.338	12.328	12.305	12.283	12.255	12.232	12.245	12.265	12.285	12.305	12.325	12.345	12.365	12.415	12.535	12.665	12.795	12.925	13.055	13.2	13.443	13.59	13.64	13.68	13.72	15.37	11.197	9.4747	9.339	10.772	14.265	14.5	14.56	14.455	14.31	14.23	14.155	14.08	14.008	13.932	14.22	14.22	13.71	13.64	13.565	13.527	14.415	15.44	16.073	16.387	16.648	16.765	16.813	16.845	16.785	16.332	15.755	14.225	13.418	13.375	13.377	13.37	13.318	13.238	13.168	13.015	12.887	12.922	13.027	13.16	13.342	13.553	13.765	13.977	14.188	14.3	14.385	14.51	14.64	14.78	14.915	15.05	15.185	14.838	15.52	13.813	13.63	13.637	13.665	13.582	13.525	13.46	13.415	13.41	13.42	13.43	13.412	13.52	13.727	14	14.275	14.41	14.393	14.375	14.37	14.363	14.357	14.35	14.363	14.307	14.375	14.455	14.525	14.537	14.555	14.61	14.67	14.725	14.785	14.84	14.9	15.092	15.415	15.735	16.06	16.38	16.7	17.025	17.345	17.642	17.392	17.008	16.593	16.175	16.008	15.97	15.947	15.94	15.957	16.015	16.105	16.45
21.402	21.352	20.902	17.707	13.697	12.835	12.625	12.432	12.383	12.373	12.367	12.36	12.352	12.342	12.338	12.33	12.322	12.31	12.285	12.258	12.235	12.21	12.225	12.245	12.265	12.285	12.305	12.325	12.41	12.54	12.67	12.8	12.93	13.05	13.168	13.217	13.252	13.283	13.313	13.348	15.37	12.02	12.286	9.3351	9.8272	14.236	14.206	14.533	14.543	14.46	14.383	14.303	14.225	14.148	14.07	13.995	13.915	14.22	14.22	14.22	15.225	18.677	21.01	21.872	22.305	22.567	22.407	22.145	21.835	21.785	21.262	20.935	19.198	17.082	14.803	13.588	13.54	13.53	13.54	13.49	13.37	13.3	13.322	13.425	13.533	13.61	13.695	13.83	14.008	14.223	14.383	14.473	14.61	14.745	14.88	15.015	15.15	15.285	14.975	15.52	13.935	13.635	13.685	13.655	13.625	13.59	13.537	13.41	13.27	13.172	13.11	13.107	13.29	13.57	13.86	14.152	14.26	14.28	14.283	14.275	14.295	14.352	14.332	14.357	14.295	14.315	14.393	14.465	14.545	14.592	14.607	14.66	14.715	14.775	14.832	14.928	15.22	15.545	15.865	16.188	16.51	16.86	17.242	17.495	17.52	17.225	16.875	16.52	16.17	15.947	15.945	15.955	15.965	15.985	15.998	15.973	16
21.445	21.395	21.35	19.438	15.137	12.935	12.727	12.525	12.377	12.367	12.357	12.35	12.342	12.338	12.33	12.322	12.318	12.31	12.287	12.265	12.235	12.213	12.19	12.205	12.225	12.245	12.265	12.3	12.415	12.545	12.675	12.803	12.852	12.842	12.975	13.13	13.203	13.227	13.25	13.27	13.297	15.37	15.37	10.244	9.4516	10.111	12.745	14.177	14.557	14.535	14.455	14.375	14.295	14.23	14.22	14.188	14.205	14.21	14.17	14.13	14.22	21.242	23.3	24.073	24.668	25.212	25.24	25.192	25.27	25.413	25.12	24.885	24.145	22.345	19.552	16.727	14.418	13.688	13.75	13.84	13.775	13.723	13.745	13.793	13.928	14.047	14.13	14.2	14.28	14.36	14.475	15.52	14.75	14.902	15.06	15.213	15.37	15.438	14.855	14.485	14.102	13.682	13.675	13.65	13.65	13.648	13.617	13.57	13.447	13.3	13.16	13.01	13.162	13.455	13.745	14.01	14.078	14.1	14.123	14.133	14.13	14.197	14.305	14.265	14.248	14.26	14.325	14.405	14.477	14.555	14.63	14.66	14.707	14.765	14.822	15.03	15.35	15.675	16.005	16.385	16.815	17.188	17.323	17.38	17.343	17.005	16.655	16.3	16.058	15.97	15.97	15.977	15.995	16.01	15.988	15.94	15.975
21.455	21.407	21.355	20.755	16.817	13.322	12.83	12.625	12.422	12.357	12.35	12.342	12.338	12.33	12.322	12.318	12.307	12.303	12.29	12.265	12.24	12.215	12.188	12.17	12.18	12.2	12.22	12.29	12.42	12.55	12.623	12.595	12.54	12.595	12.755	12.925	13.09	13.217	13.262	13.29	13.31	15.37	15.37	15.37	9.2786	9.495	10.7	14.382	14.383	14.56	14.523	14.473	14.453	14.41	14.37	14.33	14.29	14.248	14.195	14.12	15.425	21.457	23.975	25.105	25.358	25.407	25.39	25.392	25.385	25.405	25.348	24.8	24.3	24.328	23.815	21.625	18.828	16.078	14.262	14.17	14.178	14.15	14.172	14.197	14.295	14.435	14.563	14.607	14.62	15.52	15.52	14.873	14.982	15.145	15.29	15.582	15.643	15.248	14.82	14.422	14.145	13.688	13.65	13.65	13.655	13.66	13.66	13.645	13.6	13.48	13.34	13.16	13.047	13.34	13.633	13.863	13.89	13.912	13.94	13.96	13.982	14.002	14.457	14.307	14.28	14.322	14.39	14.422	14.457	14.515	14.57	14.645	14.705	14.755	14.857	15.162	15.53	15.94	16.38	16.813	17.065	17.133	17.19	17.242	17.135	16.785	16.435	16.195	16.082	15.992	15.995	16.003	16.02	16.017	15.955	15.912	15.945
21.462	21.418	21.36	21.285	18.703	14.422	12.93	12.725	12.515	12.363	12.342	12.338	12.33	12.322	12.318	12.307	12.3	12.293	12.287	12.27	12.245	12.217	12.195	12.165	12.148	12.155	12.185	12.293	12.387	12.375	12.32	12.265	12.235	12.375	12.54	12.705	12.87	13.035	13.2	13.293	13.313	15.37	15.37	13.84	15.37	9.3526	9.5755	11.537	14.148	14.465	14.557	14.525	14.485	14.445	14.402	14.357	14.3	14.23	14.15	14.078	14.422	19.745	23.703	25.087	25.365	25.418	25.44	25.46	25.42	25.387	25.38	25.012	24.155	23.575	23.355	24.133	23.407	20.92	17.977	15.273	14.572	14.578	14.6	14.623	14.665	14.793	14.805	14.717	14.715	15.52	14.595	14.842	15.33	15.475	15.575	15.7	15.665	15.262	14.893	14.455	13.96	13.65	13.65	13.658	13.66	13.66	13.66	13.668	13.665	13.633	13.51	13.328	13.037	13.225	13.518	13.68	13.707	13.73	13.75	13.777	13.797	13.793	14.82	14.7	14.387	14.385	14.443	14.665	14.73	14.742	14.76	14.775	14.755	14.777	15.072	15.51	15.95	16.39	16.758	16.89	16.942	17	17.052	17.11	16.915	16.565	16.33	16.218	16.108	16.02	16.017	16.03	16.043	15.992	15.922	15.885	15.92
21.473	21.425	21.358	21.28	20.545	16.06	13.283	12.825	12.62	12.415	12.338	12.33	12.322	12.313	12.307	12.3	12.293	12.287	12.28	12.273	12.248	12.223	12.195	12.172	12.145	12.125	12.15	12.172	12.155	12.13	12.117	12.125	12.148	12.232	12.385	12.545	12.705	12.863	13.025	13.188	13.303	13.19	15.37	14.04	14.094	15.37	9.3279	10.017	14.119	14.213	14.527	14.553	14.515	14.473	14.408	14.335	14.26	14.182	14.11	14.033	14.055	17.715	23.192	24.985	25.277	25.457	25.512	25.543	25.505	25.465	25.415	25.128	24.218	23.535	23.122	24.027	24.375	24.387	22.86	19.92	16.797	15.123	15.05	15.068	15.072	15.098	14.887	15.52	15.52	14.55	14.188	14.885	15.595	15.842	15.955	16.04	15.845	15.425	14.852	14.165	13.742	13.745	13.725	13.707	13.697	13.688	13.685	13.678	13.67	13.67	13.658	13.498	13.135	13.113	13.398	13.498	13.52	13.543	13.568	13.563	13.545	13.58	15	15.085	14.685	14.445	14.475	14.575	14.905	14.838	14.732	14.568	14.79	15.258	15.58	15.96	16.387	16.63	16.7	16.753	16.81	16.863	16.92	16.96	16.695	16.465	16.352	16.242	16.133	16.043	16.043	16.06	16.027	15.963	15.893	15.855	15.895
21.483	21.43	21.355	21.28	21.205	18.712	14.707	12.91	12.707	12.505	12.342	12.322	12.313	12.307	12.3	12.293	12.287	12.28	12.273	12.268	12.252	12.225	12.2	12.182	12.165	12.165	12.195	12.225	12.248	12.262	12.277	12.295	12.307	12.325	12.383	12.498	12.648	12.805	12.965	13.125	13.285	13.262	15.37	15.37	14.154	12.891	15.37	9.3358	10.094	14.089	14.33	14.55	14.53	14.453	14.38	14.305	14.232	14.165	14.1	14.018	14.018	15.807	21.735	24.782	25.225	25.422	25.575	25.622	25.59	25.51	25.383	25.102	24.295	23.457	23.148	23.918	24.61	24.863	24.777	24.277	21.995	18.65	16.003	15.57	15.258	15.17	15.52	15.52	15.115	14.232	14.252	15.418	15.985	16.425	16.505	16.398	16.115	15.62	14.2	13.825	13.71	13.93	13.925	13.91	13.893	13.875	13.855	13.835	13.815	13.797	13.78	13.63	13.3	13.045	13.255	13.31	13.335	13.338	13.36	13.43	13.53	13.635	15.277	15.455	15.05	14.65	14.525	14.572	14.68	14.547	14.398	14.885	15.485	15.82	16.128	16.402	16.505	16.545	16.585	16.625	16.672	16.73	16.788	16.782	16.6	16.49	16.378	16.267	16.157	16.067	16.07	16.06	15.998	15.928	15.863	15.83	15.865
21.492	21.427	21.35	21.28	21.19	20.613	16.867	13.303	12.765	12.57	12.38	12.332	12.322	12.315	12.305	12.297	12.287	12.277	12.27	12.262	12.26	12.258	12.252	12.25	12.25	12.27	12.31	12.35	12.39	12.422	12.445	12.463	12.475	12.492	12.508	12.553	12.65	12.758	12.915	13.07	13.23	13.328	15.37	15.37	14.273	14.261	15.37	10.038	9.3697	10.68	14.06	14.428	14.54	14.477	14.41	14.352	14.318	14.242	14.148	14.025	13.945	14.443	19.867	23.82	25.135	25.328	25.52	25.668	25.593	25.462	25.335	25.21	24.96	23.935	23.465	24.805	25.145	25.03	25.058	25.163	25.047	23.79	20.642	17.063	15.52	15.52	14.935	14.627	14.315	13.912	13.998	15.848	16.677	16.825	16.765	16.758	16.615	14.725	13.925	13.717	13.8	14.095	14.135	14.115	14.095	14.075	14.057	14.04	14.025	14.005	13.928	13.67	13.393	13.088	13.098	13.14	13.193	13.287	13.385	13.485	13.582	13.68	15.41	15.738	15.33	14.955	14.64	14.777	14.932	14.795	15.14	15.66	15.98	16.27	16.488	16.58	16.637	16.663	16.685	16.707	16.733	16.755	16.78	16.733	16.625	16.515	16.405	16.295	16.183	16.093	16.087	16.032	15.965	15.898	15.828	15.805	15.84
21.497	21.425	21.345	21.235	21.105	20.98	19.742	15.45	12.865	12.645	12.42	12.345	12.338	12.328	12.32	12.313	12.303	12.293	12.285	12.29	12.34	12.34	12.34	12.338	12.35	12.39	12.425	12.465	12.502	12.54	12.58	12.617	12.645	12.66	12.675	12.69	12.717	12.825	12.905	13.015	13.175	13.335	15.37	15.37	14.332	14.28	14.203	15.37	9.4382	9.4694	11.695	14.353	14.515	14.553	14.535	14.492	14.357	14.273	14.175	14.035	13.905	13.94	17.54	22.637	24.797	25.192	25.387	25.578	25.573	25.453	25.328	25.19	25.043	24.575	25.008	25.405	25.305	25.4	25.567	25.663	25.595	25.68	24.683	20.997	17.267	16.293	15.6	14.883	14.463	13.69	12.912	13.902	16.703	16.973	16.913	16.867	15.928	14.035	13.832	13.678	13.912	14.23	14.335	14.315	14.3	14.285	14.265	14.245	14.225	14.19	13.977	13.7	13.425	13.168	13.085	13.152	13.232	13.322	13.412	13.498	13.588	13.678	15.502	15.93	15.438	14.9	15	15.055	15.213	15.383	15.675	16.023	16.367	16.56	16.637	16.715	16.785	16.813	16.835	16.86	16.885	16.905	16.883	16.742	16.64	16.532	16.427	16.32	16.21	16.115	16.067	16.003	15.932	15.867	15.797	15.775	15.815
21.495	21.398	21.275	21.157	21.05	20.942	20.843	18.663	14.015	12.713	12.477	12.36	12.352	12.342	12.335	12.325	12.315	12.307	12.32	12.39	12.43	12.428	12.422	12.428	12.46	12.5	12.54	12.58	12.62	12.66	12.697	12.735	12.775	12.81	12.84	12.857	12.875	12.893	12.988	13.098	13.16	13.28	15.37	15.37	14.32	14.26	14.18	15.37	11.731	9.5334	9.4616	11.949	14.387	14.627	14.623	14.455	14.398	14.32	14.18	14.04	13.9	13.86	15.318	21.203	24.305	25.06	25.262	25.47	25.51	25.445	25.32	25.183	25.005	24.035	24.343	25.62	25.762	25.93	26.09	26.16	26.17	26.315	26	23.285	19.035	17.938	16.738	15.595	15.375	14.928	14.055	12.217	13.713	16.613	17.038	16.773	14.492	13.94	13.738	13.713	14.03	14.35	14.543	14.525	14.505	14.485	14.465	14.447	14.43	14.285	14.01	13.732	13.482	13.35	13.295	13.36	13.412	13.47	13.533	13.598	13.675	13.755	15.418	15.973	15.215	14.995	15.46	15.422	15.518	15.693	15.977	16.313	16.593	16.695	16.775	16.85	16.925	16.965	16.988	17.01	17.035	17.04	16.895	16.758	16.65	16.547	16.44	16.332	16.227	16.155	16.06	15.973	15.902	15.835	15.768	15.75	15.785
21.48	21.385	21.29	21.195	21.1	21.005	20.907	20.7	17.455	13.175	12.535	12.375	12.365	12.357	12.348	12.338	12.328	12.348	12.42	12.5	12.512	12.51	12.512	12.54	12.58	12.62	12.655	12.695	12.732	12.77	12.81	12.85	12.89	12.93	12.97	13.005	13.035	13.057	13.072	13.135	13.283	13.35	15.37	12.4	14.31	14.245	14.18	14.113	15.37	15.4	9.5053	10.019	13.422	14.508	14.54	14.52	14.463	14.325	14.185	14.045	13.905	13.795	14.08	19.113	23.84	24.94	25.14	25.35	25.42	25.398	25.313	25.175	24.983	24.012	22.898	25.26	26.192	26.45	26.617	26.683	26.75	26.843	25.448	22.455	19.648	18.95	17.668	16.295	15.938	16.093	16.358	16.22	12.985	12.995	16.245	15.5	13.875	13.835	13.658	13.83	14.15	14.47	14.725	14.725	14.707	14.69	14.675	14.655	14.578	14.318	14.043	13.807	13.682	13.575	13.51	13.57	13.63	13.688	13.74	13.8	13.857	13.91	14.525	15.727	15.81	15.75	15.71	15.835	15.86	16.017	16.233	16.54	16.747	16.835	16.907	16.985	17.063	17.115	17.137	17.163	17.183	17.085	16.905	16.77	16.663	16.56	16.453	16.35	16.302	16.3	16.188	16.058	15.932	15.825	15.735	15.727	15.79
21.527	21.433	21.335	21.242	21.148	21.055	20.97	20.885	20.425	16.188	12.725	12.402	12.38	12.373	12.363	12.348	12.377	12.455	12.535	12.598	12.6	12.6	12.615	12.655	12.69	12.73	12.77	12.81	12.85	12.89	12.928	12.965	13.005	13.04	13.08	13.12	13.16	13.2	13.232	13.255	13.293	13.44	15.37	12.188	14.285	14.23	14.165	14.085	14.015	15.4	15.4	9.5285	9.7884	13.392	14.59	14.607	14.485	14.357	14.223	14.078	13.938	13.912	14.037	16.962	22.86	24.815	25.02	25.225	25.33	25.31	25.282	25.168	25.023	24.832	24.218	24.898	25.79	26.6	27.13	27.23	27.308	26.155	23.797	20.765	19.635	19.872	18.52	16.98	16.71	17.08	17.44	17.915	17.04	13.537	12.668	13.207	13.635	13.725	13.658	13.95	14.27	14.59	14.887	14.935	14.915	14.895	14.875	14.84	14.627	14.35	14.133	14.015	13.908	13.8	13.717	13.787	13.842	13.9	13.957	14.012	14.072	14.15	14.688	15.768	16.527	15.95	15.69	15.9	16.145	16.355	16.512	16.718	16.895	16.968	17.045	17.117	17.195	17.262	17.29	17.313	17.26	17.085	16.907	16.782	16.677	16.57	16.473	16.435	16.45	16.445	16.335	16.207	16.078	15.953	15.793	15.762	15.84
21.575	21.477	21.385	21.295	21.207	21.122	21.043	20.973	20.898	19.56	14.648	12.438	12.395	12.383	12.367	12.405	12.49	12.57	12.65	12.69	12.685	12.693	12.73	12.77	12.81	12.85	12.885	12.925	12.963	13	13.04	13.08	13.12	13.16	13.2	13.235	13.275	13.313	13.35	13.39	13.428	13.463	15.37	12.415	13.973	14.17	14.088	14.023	13.967	13.932	15.4	9.6993	9.4789	12.029	14.515	14.65	14.568	14.412	14.248	14.107	14.088	14.185	14.295	15.465	20.965	24.26	24.86	25.1	25.24	25.22	25.2	25.135	25.07	24.985	24.99	25.37	25.427	25.843	25.968	25.093	24.035	21.985	20.435	19.9	20.36	20.358	19.045	17.45	16.97	17.32	17.675	17.775	17.898	17.523	15.113	13.303	13.57	13.643	13.75	14.07	14.39	14.707	15.02	15.135	15.115	15.1	15.082	14.935	14.66	14.457	14.345	14.24	14.13	14.023	13.928	13.992	14.06	14.115	14.17	14.24	14.335	14.553	15.09	16.06	16.67	15.703	15.705	16.008	16.358	16.635	16.75	16.887	17.032	17.105	17.183	17.255	17.332	17.402	17.44	17.427	17.265	17.085	16.913	16.797	16.69	16.59	16.567	16.58	16.593	16.593	16.483	16.355	16.227	16.03	15.832	15.832	15.89
21.62	21.532	21.453	21.383	21.317	21.267	21.218	21.16	21.025	20.86	18.045	13.693	12.405	12.398	12.44	12.52	12.6	12.68	12.758	12.77	12.775	12.81	12.845	12.885	12.92	12.96	13	13.04	13.08	13.12	13.16	13.195	13.235	13.27	13.31	13.35	13.39	13.43	13.47	13.508	13.545	13.585	13.62	15.37	13.56	14.065	13.995	13.938	13.935	13.97	15.4	15.4	9.6613	9.5213	12.96	14.588	14.557	14.405	14.283	14.268	14.357	14.453	14.428	14.637	18.968	22.832	24.345	24.855	25.137	25.168	25.015	24.253	24.828	24.635	23.948	23.407	22.94	22.485	21.76	20.795	20.058	19.907	20.337	20.81	20.62	20.525	19.313	17.867	17.203	17.435	17.613	17.705	17.727	17.52	16.688	16.003	14.268	13.768	13.875	14.19	14.502	14.82	15.14	15.342	15.325	15.305	15.227	14.97	14.785	14.678	14.57	14.463	14.355	14.25	14.14	14.195	14.27	14.332	14.537	14.842	15.258	15.675	16.18	16.715	17.11	15.803	15.922	16.255	16.585	16.875	16.97	17.08	17.17	17.242	17.315	17.392	17.465	17.543	17.578	17.445	17.265	17.085	16.92	16.81	16.712	16.698	16.71	16.723	16.74	16.738	16.633	16.503	16.293	15.975	15.922	15.91	15.957
21.727	21.677	21.628	21.578	21.527	21.477	21.42	21.29	21.125	20.953	20.098	15.818	12.58	12.47	12.55	12.63	12.715	12.795	12.857	12.86	12.88	12.92	12.96	13	13.04	13.08	13.117	13.155	13.193	13.23	13.27	13.31	13.35	13.39	13.43	13.467	13.505	13.543	13.575	13.61	13.645	13.678	13.71	14.32	12.453	13.957	13.922	13.928	13.938	13.96	13.992	15.4	9.8096	9.7662	13.408	14.467	14.565	14.46	14.453	14.525	14.525	14.39	14.322	14.74	17.242	21.233	23.69	24.337	24.233	24.085	23.74	23.08	23.31	22.61	21.445	20.69	20.155	20.027	19.87	20	20.517	21.125	21.668	21.547	21.058	20.422	19.277	18.063	17.41	17.52	17.633	17.64	17.512	17.265	16.73	16.273	15.82	15.377	14.883	14.387	14.62	14.94	15.26	15.52	15.525	15.49	15.285	15.115	15.01	14.9	14.793	14.688	14.58	14.473	14.365	14.393	14.723	15.148	15.58	16.01	16.445	16.87	17.207	17.43	17.25	16.73	16.675	16.815	17.145	17.367	17.198	17.3	17.4	17.477	17.55	17.622	17.703	17.758	17.668	17.45	17.265	17.085	16.93	16.835	16.828	16.84	16.855	16.87	16.88	16.885	16.782	16.555	16.185	16.023	16.01	15.998	16.02
21.938	21.887	21.837	21.788	21.738	21.68	21.555	21.385	21.215	21.045	20.892	18.038	13.502	12.568	12.665	12.748	12.83	12.91	12.947	12.96	13	13.04	13.075	13.115	13.15	13.19	13.23	13.27	13.31	13.35	13.39	13.425	13.465	13.495	13.53	13.563	13.595	13.627	13.66	13.69	13.72	13.755	13.785	13.818	14.32	13.107	13.883	13.885	13.898	13.928	13.975	13.95	15.4	9.7794	9.5324	12.03	14.533	14.625	14.617	14.5	14.34	14.19	14.428	15.01	16.115	19.655	21.875	22.405	21.91	21.2	20.773	20.45	20.375	20.102	19.86	20.02	20.265	20.508	20.755	20.98	21.555	21.94	21.675	20.898	20.142	19.363	18.38	17.74	17.565	17.633	17.758	17.698	17.587	17.385	16.922	16.46	16.08	15.912	15.775	15.422	14.97	15.085	15.38	15.682	15.735	15.6	15.447	15.34	15.232	15.125	15.02	14.91	14.803	14.73	14.69	14.912	15.535	15.985	16.433	16.883	17.297	17.462	17.515	17.565	17.62	17.657	17.695	17.675	17.755	17.89	17.54	17.605	17.79	17.895	17.98	18.058	18.067	18.032	17.837	17.573	17.315	17.095	16.96	16.96	16.97	16.985	17	17.012	17.027	17.03	16.817	16.438	16.142	16.113	16.1	16.087	16.093
22.148	22.098	22.047	21.997	21.942	21.817	21.648	21.48	21.33	21.183	21.038	18.57	14.822	12.555	12.752	12.86	12.94	13.015	13.037	13.072	13.11	13.15	13.19	13.23	13.27	13.31	13.348	13.383	13.418	13.45	13.48	13.512	13.545	13.578	13.61	13.637	13.665	13.69	13.72	13.748	13.77	13.793	13.815	13.84	14.32	12.185	13.645	13.82	13.852	13.887	13.953	14.037	15.4	15.4	9.6509	10.664	14.402	14.625	14.508	14.295	14.137	14.143	14.697	15.303	16.08	18.628	19.837	20.075	19.69	19.88	20.677	21.3	21.395	21.095	20.805	20.75	21.065	21.35	21.625	21.825	21.73	21.295	20.8	19.985	19.125	18.435	18.12	17.957	17.797	17.813	17.95	17.86	17.733	17.545	17.11	16.663	16.43	16.372	16.235	15.985	15.735	15.445	15.58	15.825	15.898	15.787	15.735	15.69	15.648	15.62	15.645	15.668	15.69	15.71	15.717	15.75	16.33	16.78	17.23	17.625	17.738	17.788	17.843	17.9	17.96	18.03	18.145	18.265	18.385	18.405	18.125	18	18.19	18.345	18.395	18.35	18.305	18.25	18.01	17.75	17.485	17.28	17.155	17.175	17.185	17.203	17.215	17.23	17.245	17.08	16.77	16.33	16.215	16.203	16.19	16.177	16.165
22.358	22.308	22.258	22.203	22.082	21.913	21.755	21.61	21.47	21.325	21.183	19.227	16.207	13.035	12.755	12.935	13.055	13.12	13.15	13.19	13.23	13.265	13.303	13.338	13.37	13.398	13.422	13.45	13.48	13.508	13.53	13.553	13.575	13.6	13.62	13.645	13.668	13.69	13.713	13.735	13.76	13.78	13.805	13.822	13.855	14.32	12.117	13.76	13.81	13.908	13.998	14.037	13.623	15.4	9.6674	9.9009	12.362	14.5	14.59	14.307	14.012	14.307	14.855	15.457	16.365	18.175	20.4	21.223	20.203	20.848	21.622	21.718	21.703	21.76	21.738	21.615	21.762	21.948	21.825	21.54	20.95	20.43	19.925	19.185	18.73	18.578	18.418	18.4	18.567	18.325	18.15	18.008	17.878	17.71	17.293	16.96	16.885	16.845	16.7	16.445	16.195	15.965	15.845	16.025	16.365	16.485	16.582	16.652	16.727	16.797	16.832	16.855	16.878	16.9	16.805	16.587	17.128	17.575	17.922	18.012	18.067	18.125	18.185	18.245	18.305	18.365	18.448	18.565	18.685	18.755	18.64	18.465	18.567	18.668	18.62	18.56	18.573	18.45	18.185	17.92	17.735	17.73	17.473	17.425	17.465	17.477	17.495	17.505	17.523	17.105	16.935	16.375	16.305	16.293	16.277	16.267	16.253
22.573	22.517	22.465	22.343	22.183	22.04	21.887	21.637	21.395	21.3	21.42	20.907	18.225	13.947	12.893	13.02	13.158	13.207	13.24	13.268	13.29	13.313	13.335	13.36	13.38	13.405	13.428	13.45	13.473	13.495	13.52	13.54	13.565	13.588	13.61	13.633	13.655	13.68	13.7	13.725	13.748	13.77	13.79	13.797	13.845	13.915	14.32	12.81	13.88	13.953	14	14.07	14.05	15.63	9.8479	9.6758	10.606	14.348	14.555	14.398	14.205	14.428	14.865	15.55	16.915	18.192	20.352	21.313	21.003	21.637	21.747	21.6	21.5	21.58	21.64	21.692	21.51	20.985	21.32	21.073	20.485	19.883	19.477	19.265	19.085	18.973	19.11	19.358	19.608	19.66	19.082	18.365	18.02	17.875	17.52	17.395	17.355	17.32	17.16	16.91	16.66	16.488	16.375	16.688	16.855	16.975	17.095	17.215	17.335	17.453	17.57	17.69	17.808	17.902	17.79	17.453	17.922	18.215	18.29	18.35	18.41	18.47	18.53	18.59	18.65	18.71	18.77	18.87	18.988	19.075	18.977	18.845	18.725	18.795	18.825	18.845	18.815	18.62	18.36	18.195	18.185	18.203	17.89	17.63	17.703	17.753	17.77	17.785	17.795	17.372	17.01	16.578	16.433	16.383	16.367	16.355	16.343
22.863	22.725	22.615	22.4	22.128	21.765	21.427	21.345	21.477	21.598	21.665	21.48	19.945	15.137	13.158	13.225	13.38	13.25	13.232	13.255	13.28	13.3	13.325	13.348	13.37	13.393	13.415	13.44	13.46	13.485	13.508	13.53	13.553	13.575	13.6	13.62	13.645	13.668	13.69	13.713	13.735	13.76	13.773	13.77	13.84	13.875	13.935	14.32	13.51	13.98	14.05	14.12	14.215	13.107	15.63	9.6584	10.151	12.704	14.465	14.485	14.495	14.73	14.96	15.898	17.3	18.23	19.668	21.345	21.63	21.71	21.672	21.475	21.315	21.38	21.46	21.488	20.35	16.785	19.61	20.64	20.223	19.957	19.78	19.602	19.508	19.505	19.755	20.09	20.413	20.695	20.293	19.517	18.745	18.133	17.905	17.867	17.83	17.79	17.62	17.37	17.168	17.017	16.962	17.23	17.35	17.47	17.585	17.705	17.825	17.935	18.035	18.125	18.205	18.288	18.37	18.325	18.51	18.57	18.63	18.69	18.75	18.81	18.87	18.93	18.99	19.05	19.11	19.18	19.295	19.398	19.315	19.155	18.915	18.922	19.05	19.115	19.03	18.805	18.655	18.642	18.67	18.66	18.323	17.938	17.9	17.98	18.04	18.06	17.985	17.62	17.2	16.8	16.615	16.525	16.462	16.445	16.433
23.135	22.642	22.172	21.775	21.448	21.38	21.48	21.567	21.608	21.58	21.5	21.42	20.938	16.475	13.78	13.495	13.595	13.377	13.225	13.245	13.268	13.29	13.313	13.335	13.36	13.38	13.405	13.428	13.45	13.473	13.495	13.52	13.54	13.565	13.588	13.61	13.633	13.655	13.68	13.7	13.725	13.742	13.745	13.74	13.803	13.835	13.895	14.32	12.133	13.885	14.07	14.15	14.242	13.02	15.63	9.7523	9.8918	12.674	14.357	14.51	14.58	14.765	15.13	16.27	17.348	18.175	18.91	21.145	21.66	21.695	21.55	21.35	21.152	21.168	21.03	20	19.08	19.218	20.427	20.358	20.332	20.195	20.065	19.905	19.977	20.025	20.023	20.23	20.57	20.902	20.74	20	19.26	18.725	18.468	18.34	18.3	18.26	18.08	17.855	17.698	17.547	17.552	17.725	17.845	17.96	18.06	18.16	18.24	18.32	18.395	18.475	18.55	18.63	18.703	18.777	18.845	18.907	18.973	19.035	19.095	19.155	19.215	19.275	19.335	19.395	19.455	19.515	19.598	19.712	19.65	19.46	19.218	19.133	19.245	19.323	19.242	19.125	19.1	19.125	19.155	19.117	18.758	18.35	18.098	18.175	18.258	18.328	18.267	17.84	17.44	17.04	16.795	16.705	16.615	16.543	16.523
23.08	22.405	21.515	21.363	21.427	21.48	21.532	21.525	21.455	21.372	21.29	21.21	21.035	18.005	14.693	13.773	13.78	13.533	13.293	13.235	13.255	13.28	13.3	13.325	13.348	13.37	13.393	13.415	13.44	13.46	13.485	13.508	13.53	13.553	13.575	13.6	13.62	13.645	13.668	13.69	13.71	13.72	13.715	13.723	13.773	13.79	13.855	13.915	12.75	12.39	14.05	14.143	14.245	14.385	11.131	15.63	9.6347	12.064	14.252	14.46	14.56	14.755	15.453	16.5	17.335	18.135	18.617	20.782	21.56	21.525	21.323	21.133	20.94	20.295	19.45	20.163	20.17	20.277	20.343	20.325	20.267	20.385	20.315	20.195	20.3	20.42	20.515	20.54	20.71	21.047	21.073	20.337	19.698	19.497	19.225	18.94	18.777	18.735	18.547	18.378	18.227	18.078	18.085	18.18	18.26	18.34	18.415	18.49	18.565	18.64	18.718	18.79	18.867	18.94	19.017	19.087	19.157	19.225	19.293	19.36	19.427	19.495	19.558	19.62	19.68	19.74	19.8	19.86	19.92	20.015	19.983	19.762	19.6	19.435	19.355	19.433	19.547	19.558	19.582	19.61	19.637	19.578	19.19	18.782	18.4	18.37	18.45	18.488	18.41	18.08	17.68	17.28	16.975	16.885	16.795	16.705	16.625
22.925	22.043	21.332	21.4	21.453	21.47	21.41	21.33	21.25	21.17	21.09	21.01	20.93	19.455	15.91	14.188	13.938	13.688	13.44	13.242	13.245	13.268	13.29	13.313	13.335	13.36	13.38	13.405	13.428	13.45	13.473	13.495	13.52	13.54	13.565	13.588	13.61	13.633	13.655	13.68	13.695	13.69	13.685	13.707	13.715	13.755	13.815	13.875	13.953	13.79	13.33	14.1	14.23	14.352	11.815	15.63	9.5773	11.299	14.078	14.365	14.555	14.825	15.63	16.4	17.185	18.047	18.392	20.25	21.218	20.905	20.645	20.43	20.238	19.845	19.93	20.117	20.177	20.3	20.433	20.503	20.515	20.585	20.555	20.51	20.62	20.74	20.85	20.97	21.04	21.2	21.335	20.71	20.45	20.282	19.995	19.712	19.425	19.223	19.047	18.86	18.652	18.468	18.457	18.5	18.578	18.652	18.727	18.802	18.88	18.953	19.03	19.102	19.18	19.255	19.33	19.4	19.468	19.535	19.602	19.672	19.738	19.808	19.872	19.942	20.008	20.075	20.14	20.2	20.26	20.33	20.305	20.117	19.94	19.755	19.582	19.57	19.723	19.855	19.968	20.04	20.105	20.03	19.625	19.218	18.808	18.535	18.49	18.41	18.33	18.235	17.92	17.52	17.177	17.065	16.975	16.885	16.795
22.418	21.512	21.35	21.43	21.427	21.36	21.3	21.23	21.15	21.07	20.992	20.913	20.83	20.255	16.997	14.64	14.09	13.842	13.595	13.348	13.235	13.258	13.28	13.3	13.325	13.348	13.37	13.393	13.415	13.44	13.46	13.485	13.508	13.53	13.553	13.575	13.6	13.62	13.645	13.662	13.665	13.662	13.658	13.693	13.648	13.72	13.775	13.835	13.915	14.063	13.802	14.035	14.17	14.32	13.588	15.63	9.5747	10.745	13.605	14.268	14.463	14.7	15.295	16.067	16.902	18.017	18.497	19.56	20.422	20.25	19.968	19.785	19.782	19.9	20.02	20.255	20.363	20.422	20.517	20.648	20.76	20.793	20.797	20.83	20.94	21.06	21.17	21.29	21.4	21.512	21.59	21.37	21.27	21.045	20.707	20.37	19.997	19.617	19.358	19.13	18.913	18.852	18.86	18.86	18.892	18.965	19.04	19.115	19.19	19.267	19.34	19.418	19.49	19.567	19.642	19.712	19.777	19.848	19.913	19.983	20.047	20.117	20.185	20.253	20.323	20.387	20.457	20.523	20.593	20.657	20.637	20.475	20.32	20.165	20.008	19.855	19.85	20.045	20.32	20.48	20.565	20.418	20.008	19.598	19.157	18.703	18.457	18.305	18.223	18.142	18.067	17.76	17.387	17.25	17.16	17.07	16.98
21.832	21.495	21.448	21.512	21.48	21.42	21.352	21.302	21.26	21.22	21.177	21.12	21.06	20.78	17.398	14.852	14.293	13.998	13.75	13.5	13.273	13.245	13.27	13.29	13.315	13.335	13.36	13.38	13.405	13.428	13.45	13.473	13.495	13.52	13.54	13.565	13.588	13.61	13.63	13.64	13.635	13.635	13.63	13.662	13.605	13.68	13.735	13.8	13.88	14.027	13.794	13.84	14.178	14.35	14.502	11.008	16.01	10.22	12.932	14.18	14.37	14.545	14.813	15.672	16.948	18.203	18.63	18.887	19.352	19.567	19.628	19.767	19.9	20.003	20.128	20.34	20.593	20.692	20.767	20.84	20.913	21.01	21.065	21.15	21.26	21.375	21.488	21.602	21.715	21.825	21.875	21.815	21.72	21.405	21.005	20.62	20.247	19.875	19.608	19.383	19.25	19.258	19.26	19.262	19.27	19.285	19.352	19.43	19.503	19.58	19.652	19.73	19.805	19.88	19.953	20.023	20.087	20.157	20.225	20.293	20.36	20.427	20.495	20.563	20.633	20.698	20.767	20.848	20.89	20.86	20.845	20.808	20.665	20.505	20.345	20.185	20.113	20.315	20.605	20.89	21.023	20.782	20.372	19.925	19.39	18.933	18.668	18.402	18.168	18.035	17.965	17.898	17.602	17.43	17.34	17.285	17.425
22.035	21.828	21.558	21.585	21.54	21.48	21.41	21.35	21.29	21.227	21.18	21.14	21.1	20.945	17.64	15.12	14.563	14.185	13.905	13.658	13.408	13.242	13.258	13.28	13.303	13.325	13.348	13.37	13.393	13.415	13.44	13.46	13.485	13.508	13.53	13.553	13.575	13.6	13.615	13.61	13.607	13.605	13.6	13.613	13.568	13.64	13.697	13.77	13.832	13.995	14.107	13.806	14.065	14.293	14.525	12.251	16.01	10.03	12.01	14.023	14.1	14.34	14.61	15.405	17.473	18.995	19.733	19.475	19.24	19.587	19.802	19.938	20.095	20.275	20.415	20.497	20.69	20.927	21.017	21.093	21.165	21.238	21.328	21.453	21.565	21.675	21.788	21.9	22.01	22.078	22.04	21.997	21.935	21.628	21.25	20.875	20.505	20.13	19.86	19.67	19.657	19.66	19.663	19.67	19.67	19.677	19.688	19.74	19.817	19.89	19.968	20.04	20.117	20.192	20.265	20.332	20.4	20.468	20.535	20.602	20.672	20.738	20.808	20.875	20.945	21.04	21.102	21.08	21.03	20.988	20.985	20.985	20.968	20.845	20.685	20.525	20.46	20.655	20.898	21.192	21.38	21.148	20.692	20.16	19.613	19.163	18.898	18.633	18.367	18.102	17.883	17.793	17.73	17.747	17.988	18.422	18.642
22.488	22.297	21.657	21.64	21.598	21.54	21.475	21.41	21.35	21.285	21.22	21.16	21.105	20.965	18.025	15.395	14.835	14.453	14.08	13.81	13.563	13.32	13.245	13.27	13.29	13.315	13.338	13.36	13.383	13.405	13.428	13.45	13.473	13.495	13.52	13.54	13.565	13.585	13.585	13.582	13.58	13.575	13.575	13.55	13.533	13.602	13.665	13.735	13.787	13.947	14.037	13.81	13.945	14.23	14.515	12.42	16.01	10.061	11.072	13.547	13.893	14.2	14.515	14.735	17.29	20.082	20.063	19.835	19.742	19.815	19.962	20.245	20.422	20.598	20.705	20.785	20.863	21.05	21.26	21.343	21.415	21.488	21.578	21.75	21.86	21.973	22.085	22.195	22.282	22.25	22.207	22.16	22.113	21.875	21.505	21.133	20.76	20.39	20.12	20.055	20.06	20.06	20.07	20.07	20.073	20.08	20.08	20.087	20.13	20.203	20.28	20.355	20.43	20.505	20.575	20.642	20.712	20.777	20.848	20.913	20.983	21.047	21.133	21.235	21.317	21.305	21.25	21.2	21.145	21.125	21.125	21.125	21.125	21.117	21.02	20.865	20.81	21.025	21.26	21.435	21.508	21.405	20.91	20.38	19.837	19.395	19.128	18.88	18.652	18.422	18.3	18.75	18.89	18.54	18.852	19.247	19.117
22.945	22.77	21.735	21.695	21.655	21.6	21.535	21.47	21.41	21.345	21.28	21.22	21.152	21.063	18.76	15.845	15.113	14.725	14.342	13.98	13.72	13.47	13.26	13.258	13.28	13.303	13.325	13.35	13.37	13.395	13.415	13.44	13.46	13.485	13.508	13.53	13.553	13.56	13.557	13.555	13.55	13.547	13.557	13.473	13.495	13.565	13.625	13.678	13.758	13.885	14.027	13.798	13.515	14.22	14.495	12.662	16.01	10.086	10.498	12.938	13.877	14.16	14.385	14.59	15.205	19.098	20.052	20.067	20.102	19.922	20.22	20.57	20.747	20.91	21	21.075	21.152	21.23	21.41	21.593	21.665	21.74	21.823	22.023	22.157	22.27	22.38	22.48	22.46	22.418	22.37	22.32	22.275	22.12	21.75	21.383	21.017	20.648	20.455	20.46	20.46	20.468	20.47	20.473	20.48	20.48	20.488	20.49	20.492	20.523	20.593	20.668	20.742	20.817	20.887	20.953	21.023	21.087	21.157	21.23	21.323	21.442	21.527	21.525	21.475	21.42	21.37	21.315	21.273	21.265	21.265	21.265	21.265	21.262	21.258	21.188	21.17	21.365	21.465	21.515	21.43	21.337	20.983	20.473	20.003	19.777	19.595	19.433	19.24	19.152	19.47	19.552	19.52	19.427	19.352	19.245	19.135
23.255	23.22	22.392	21.755	21.715	21.66	21.598	21.53	21.47	21.405	21.335	21.242	21.13	21.043	19.57	16.352	15.383	15.005	14.615	14.235	13.883	13.625	13.377	13.245	13.27	13.29	13.315	13.338	13.36	13.383	13.405	13.43	13.45	13.473	13.495	13.52	13.535	13.533	13.527	13.525	13.523	13.52	13.535	13.402	13.46	13.525	13.59	13.613	13.72	13.86	14.027	13.925	12.845	14.585	15.04	13.834	16.01	10.002	10.24	12.04	13.795	14.015	14.25	14.495	14.637	16.492	19.965	20.387	20.642	20.438	20.51	20.892	21.075	21.215	21.293	21.367	21.445	21.52	21.598	21.767	21.915	21.99	22.067	22.273	22.455	22.565	22.67	22.67	22.625	22.58	22.53	22.485	22.44	22.335	21.997	21.63	21.26	20.892	20.828	20.85	20.858	20.865	20.87	20.88	20.88	20.887	20.89	20.89	20.9	20.9	20.918	20.98	21.055	21.128	21.198	21.265	21.332	21.418	21.525	21.648	21.742	21.745	21.695	21.642	21.59	21.54	21.485	21.435	21.405	21.405	21.405	21.402	21.398	21.395	21.395	21.395	21.383	21.39	21.42	21.44	21.297	21.18	20.997	20.622	20.345	20.32	20.09	19.863	19.773	19.755	19.69	19.587	19.435	19.273	19.02	18.99	19.27
23.065	23.1	23.07	22.305	21.765	21.72	21.66	21.59	21.523	21.43	21.313	21.198	21.08	20.995	20.06	16.723	15.51	15.255	14.895	14.508	14.125	13.785	13.533	13.297	13.258	13.28	13.303	13.325	13.35	13.37	13.395	13.418	13.44	13.463	13.485	13.505	13.505	13.505	13.5	13.495	13.495	13.49	13.477	13.338	13.425	13.485	13.555	13.55	13.662	13.955	14.01	13.953	12.795	14.415	15.72	14.496	16.01	9.9539	10.24	11.175	13.54	13.918	14.19	14.45	14.595	14.658	17.352	20.395	21.195	20.973	20.887	21.205	21.402	21.508	21.585	21.66	21.735	21.815	21.89	21.965	22.117	22.24	22.313	22.51	22.74	22.863	22.88	22.835	22.79	22.74	22.695	22.648	22.6	22.538	22.24	21.872	21.505	21.152	21.125	21.225	21.235	21.242	21.253	21.26	21.267	21.277	21.285	21.293	21.297	21.302	21.31	21.315	21.367	21.44	21.512	21.61	21.727	21.855	21.957	21.968	21.915	21.865	21.813	21.76	21.71	21.655	21.605	21.558	21.545	21.54	21.535	21.535	21.535	21.535	21.535	21.473	21.405	21.402	21.378	21.365	21.313	21.203	21.055	20.848	20.622	20.415	20.15	19.88	19.745	19.61	19.475	19.192	18.835	18.538	18.615	19.023	19.418
22.872	22.95	23.03	22.815	22.163	21.78	21.71	21.61	21.495	21.38	21.265	21.15	21.038	20.913	19.815	17.095	15.775	15.275	15.113	14.785	14.398	14.015	13.688	13.44	13.258	13.27	13.29	13.315	13.338	13.36	13.383	13.405	13.43	13.45	13.475	13.48	13.477	13.475	13.473	13.467	13.465	13.463	13.425	13.297	13.385	13.447	13.5	13.495	13.69	14.012	14.075	13.995	13.428	13.545	15.947	16.102	16.01	10.163	10.125	10.662	13.05	13.78	14.13	14.435	14.545	14.602	15.03	19.372	21.758	21.485	21.365	21.515	21.715	21.8	21.875	21.953	22.03	22.105	22.183	22.258	22.335	22.47	22.563	22.75	22.995	23.09	23.045	22.997	22.95	22.902	22.855	22.81	22.76	22.715	22.485	22.117	21.75	21.422	21.41	21.543	21.608	21.617	21.625	21.635	21.645	21.652	21.663	21.67	21.677	21.688	21.695	21.705	21.718	21.808	21.935	22.058	22.168	22.188	22.137	22.085	22.035	21.983	21.93	21.878	21.825	21.775	21.725	21.68	21.675	21.675	21.675	21.675	21.675	21.675	21.633	21.492	21.438	21.433	21.433	21.422	21.415	21.31	21.122	20.855	20.585	20.378	20.18	19.865	19.558	19.308	19.105	18.81	18.545	18.378	18.695	19.105	19.515
22.71	22.793	22.875	22.922	22.497	21.85	21.602	21.505	21.4	21.295	21.192	21.085	20.953	20.72	19.465	17.523	16.305	15.27	15.085	14.947	14.675	14.287	13.905	13.592	13.345	13.258	13.28	13.303	13.325	13.35	13.37	13.395	13.418	13.44	13.455	13.453	13.45	13.445	13.443	13.44	13.435	13.435	13.332	13.265	13.345	13.415	13.435	13.455	13.815	14.095	14.22	14.568	14.717	13.107	15.705	16.348	15.208	16.01	10.103	10.268	12.607	13.95	14.258	14.445	14.515	14.58	14.703	16.22	22.26	22.008	21.875	21.863	22.015	22.093	22.168	22.245	22.323	22.398	22.475	22.552	22.628	22.705	22.805	22.975	23.113	23.177	23.205	23.16	23.11	23.065	23.02	22.97	22.925	22.878	22.73	22.36	21.992	21.698	21.71	21.777	21.975	21.992	22.003	22.01	22.017	22.027	22.035	22.045	22.055	22.063	22.073	22.093	22.157	22.265	22.378	22.405	22.36	22.305	22.255	22.205	22.152	22.1	22.047	21.995	21.945	21.892	21.84	21.815	21.815	21.815	21.815	21.815	21.815	21.793	21.66	21.51	21.47	21.465	21.46	21.457	21.473	21.365	21.142	21	20.773	20.575	20.285	19.968	19.652	19.42	19.262	18.758	18.515	18.402	18.775	19.185	19.595
22.56	22.64	22.72	22.8	22.742	21.758	21.297	21.203	21.095	20.957	20.802	20.617	20.205	19.823	19.218	17.55	16.715	15.555	15.025	14.9	14.775	14.547	14.178	13.8	13.5	13.283	13.27	13.29	13.315	13.338	13.36	13.383	13.405	13.428	13.428	13.425	13.42	13.418	13.415	13.41	13.408	13.408	13.235	13.232	13.31	13.377	13.35	13.51	13.908	14.155	14.252	14.492	14.957	12.313	15.652	16.122	16.36	14.068	16.27	10.2	11.325	13.81	14.297	14.405	14.51	15.4	14.805	14.982	18.777	22.477	22.325	22.235	22.247	22.32	22.395	22.468	22.54	22.615	22.685	22.762	22.837	22.907	22.977	23.058	23.102	23.17	23.262	23.31	23.275	23.23	23.18	23.133	23.085	23.04	22.94	22.605	22.24	21.962	22.01	22.06	22.227	22.367	22.375	22.385	22.395	22.402	22.413	22.42	22.427	22.438	22.475	22.543	22.605	22.625	22.58	22.53	22.475	22.425	22.375	22.323	22.27	22.218	22.165	22.115	22.063	22.01	21.962	21.955	21.955	21.955	21.955	21.955	21.942	21.825	21.675	21.535	21.5	21.497	21.492	21.488	21.485	21.448	21.348	21.188	20.962	20.71	20.392	20.085	19.942	20	19.977	19.265	18.567	18.44	18.855	19.265	19.675
22.438	22.527	22.628	22.72	22.808	21.91	21.038	20.688	20.503	20.32	20.137	19.848	19.285	18.865	18.42	17.61	16.262	16.003	15.03	14.84	14.715	14.585	14.415	14.072	13.693	13.408	13.26	13.28	13.303	13.325	13.35	13.37	13.395	13.402	13.4	13.395	13.393	13.39	13.385	13.383	13.38	13.365	13.162	13.197	13.275	13.34	13.315	13.482	13.818	14.098	14.26	14.43	14.83	13.328	14.873	15.54	15.89	15.722	16.27	10.209	10.655	12.295	16.22	16.22	15.4	14.703	16.22	15.023	15.293	20.848	22.43	22.305	22.225	22.277	22.348	22.418	22.488	22.558	22.633	22.703	22.76	22.823	22.902	23.03	23.095	23.155	23.25	23.348	23.415	23.39	23.34	23.295	23.25	23.2	23.145	22.85	22.483	22.255	22.305	22.358	22.43	22.707	22.753	22.76	22.767	22.777	22.785	22.795	22.81	22.858	22.922	22.925	22.858	22.755	22.7	22.645	22.595	22.545	22.49	22.44	22.387	22.335	22.285	22.233	22.18	22.128	22.095	22.095	22.095	22.095	22.095	22.09	21.99	21.84	21.69	21.558	21.532	21.53	21.525	21.52	21.515	21.512	21.5	21.367	21.125	20.82	20.545	20.47	20.55	20.63	20.695	20.093	19.32	19.115	19.218	19.427	19.755
22.415	22.565	22.703	22.815	22.828	22.465	21.52	20.875	20.245	19.785	19.455	19.025	18.712	18.885	18.695	17.563	15.635	15.727	15.303	14.78	14.655	14.525	14.4	14.255	13.963	13.588	13.325	13.27	13.29	13.315	13.338	13.36	13.375	13.375	13.37	13.365	13.365	13.36	13.357	13.355	13.35	13.303	13.092	13.165	13.25	13.325	13.357	13.44	13.697	13.925	14.11	14.09	14.148	13.252	13.428	14.885	15.26	15.539	16.27	10.766	10.492	11.05	13.29	16.22	14.533	14.668	14.78	16.22	15.13	15.675	21.067	22.372	22.265	22.175	22.277	22.348	22.422	22.492	22.558	22.578	22.65	22.76	22.82	22.98	23.087	23.142	23.238	23.332	23.43	23.51	23.505	23.46	23.41	23.363	23.317	23.095	22.727	22.555	22.605	22.655	22.707	22.895	23.125	23.135	23.145	23.152	23.163	23.18	23.242	23.25	23.185	23.105	23.027	22.907	22.815	22.765	22.715	22.66	22.61	22.555	22.505	22.455	22.402	22.35	22.297	22.247	22.235	22.235	22.235	22.235	22.235	22.155	22.008	21.858	21.707	21.582	21.567	21.56	21.558	21.552	21.547	21.543	21.55	21.517	21.26	21.025	21.025	21.1	21.18	21.26	21.34	20.968	20.725	20.727	20.723	20.637	20.54
21.855	22.387	22.598	22.765	22.747	22.71	22.15	21.438	20.483	19.435	18.767	18.433	18.367	18.642	18.87	17.128	15.58	15.285	15.205	14.793	14.595	14.465	14.34	14.215	14.085	13.842	13.485	13.275	13.28	13.303	13.325	13.348	13.348	13.345	13.342	13.338	13.335	13.332	13.328	13.325	13.322	13.235	13.06	13.133	13.24	13.313	13.367	13.415	13.455	13.543	13.675	13.838	13.795	13.275	14.06	14.55	14.963	15.08	16.27	16.27	10.23	10.695	11.707	16.22	14.41	14.49	14.55	14.61	16.22	15.435	16.025	20.063	21.635	22.095	22.148	22.28	22.352	22.38	22.378	22.495	22.625	22.675	22.745	22.918	23.067	23.135	23.223	23.32	23.415	23.51	23.602	23.62	23.57	23.525	23.48	23.337	22.97	22.85	22.905	22.955	23.005	23.08	23.413	23.51	23.517	23.527	23.56	23.573	23.512	23.435	23.355	23.275	23.198	23.075	22.94	22.885	22.83	22.78	22.725	22.675	22.625	22.57	22.52	22.468	22.415	22.378	22.375	22.375	22.375	22.375	22.317	22.172	22.023	21.872	21.725	21.608	21.598	21.593	21.59	21.582	21.58	21.578	21.598	21.617	21.53	21.555	21.61	21.665	21.72	21.777	21.823	21.725	21.525	21.325	21.125	20.925	20.725
20.73	21.198	21.11	21.598	21.535	21.215	21.063	20.14	18.848	18.145	18.067	17.91	18.067	18.378	18.67	16.62	15.66	15.348	15.035	14.72	14.535	14.405	14.28	14.155	14.025	13.9	13.713	13.387	13.27	13.29	13.315	13.322	13.32	13.315	13.313	13.31	13.305	13.305	13.285	13.22	13.21	13.307	13.25	13.15	13.207	13.283	13.325	13.355	13.37	13.405	13.43	13.473	13.572	13.82	14.06	14.307	14.435	14.547	14.732	16.27	11.008	10.356	11.055	12.402	16.22	14.273	14.33	14.39	16.22	16.22	16.22	16.22	17.258	18.488	19.422	20.637	21.668	22.195	22.34	22.48	22.54	22.58	22.677	22.85	23.027	23.122	23.21	23.308	23.4	23.497	23.593	23.69	23.727	23.69	23.64	23.547	23.218	23.15	23.2	23.253	23.305	23.355	23.552	23.867	23.898	23.895	23.84	23.76	23.683	23.605	23.525	23.445	23.367	23.255	23.095	23	22.95	22.895	22.845	22.795	22.74	22.69	22.637	22.585	22.535	22.515	22.515	22.515	22.515	22.477	22.34	22.19	22.04	21.89	21.74	21.635	21.63	21.625	21.62	21.617	21.61	21.622	21.645	21.698	21.742	21.777	21.81	21.843	21.878	21.902	21.867	21.7	21.5	21.3	21.1	20.902	20.718
18.72	18.718	18.625	18.72	18.96	18.648	18.405	18.16	17.532	17.495	17.48	17.48	17.628	18.207	18.045	16.102	15.455	15.07	14.697	14.495	14.435	14.33	14.21	14.09	13.965	13.84	13.715	13.56	13.313	13.28	13.295	13.295	13.29	13.287	13.252	13.238	13.25	13.213	13.238	13.25	13.207	13.325	13.34	13.273	13.15	13.23	13.277	13.313	13.322	13.332	13.352	13.387	13.41	13.809	14.06	14.075	14.26	14.46	14.66	14.87	16.27	11.435	10.313	10.991	16.22	14.115	14.168	14.225	14.287	14.357	14.527	16.22	15.82	15.547	15.61	16.055	17.262	19.22	21.165	22.34	22.445	22.485	22.61	22.79	22.962	23.108	23.2	23.293	23.39	23.483	23.58	23.675	23.77	23.835	23.802	23.747	23.483	23.45	23.5	23.55	23.602	23.633	23.715	24.1	24.168	24.09	24.01	23.93	23.852	23.775	23.695	23.615	23.538	23.425	23.265	23.125	23.065	23.015	22.965	22.91	22.86	22.805	22.755	22.705	22.66	22.655	22.655	22.655	22.635	22.505	22.355	22.205	22.055	21.905	21.755	21.668	21.663	21.657	21.652	21.65	21.648	21.67	21.715	21.795	21.855	21.89	21.922	21.957	21.98	21.948	21.87	21.675	21.475	21.275	21.075	20.883	20.758
17.685	17.698	17.64	17.652	17.67	17.585	17.45	17.31	17.223	17.26	17.3	17.258	16.81	16.705	16.015	15.453	14.963	14.547	14.4	14.348	14.293	14.232	14.12	14	13.88	13.76	13.64	13.52	13.39	13.275	13.275	13.262	13.23	13.242	13.25	13.25	13.248	13.252	13.322	13.328	13.35	13.335	13.313	13.297	13.185	13.162	13.227	13.265	13.28	13.29	13.3	13.313	13.34	13.803	14.06	13.967	14.162	14.37	14.582	14.8	15.018	16.27	10.364	10.571	11.555	16.22	14.015	14.07	14.137	14.205	14.283	16.22	16.22	15.89	15.168	15.045	14.943	14.957	16.462	19.235	21.625	22.4	22.55	22.723	22.9	23.073	23.185	23.28	23.378	23.47	23.567	23.66	23.758	23.852	23.933	23.92	23.753	23.75	23.8	23.825	23.817	23.805	23.88	24.223	24.302	24.26	24.18	24.1	24.02	23.945	23.865	23.785	23.705	23.6	23.442	23.285	23.185	23.135	23.08	23.03	22.975	22.925	22.875	22.82	22.795	22.795	22.793	22.78	22.67	22.52	22.37	22.22	22.073	21.922	21.773	21.7	21.695	21.69	21.685	21.68	21.695	21.723	21.802	21.887	21.962	22.003	22.038	22.052	22.017	21.975	21.85	21.65	21.45	21.253	21.058	20.895	20.828
17.767	17.94	17.718	17.637	17.65	17.593	17.457	17.31	17.14	17.1	17.14	17.115	16.685	16.297	15.867	15.38	14.908	14.467	14.283	14.207	14.148	14.092	14.02	13.905	13.785	13.67	13.55	13.438	13.35	13.268	13.27	13.277	13.283	13.285	13.265	13.242	13.17	13.135	13.252	13.335	13.36	13.32	13.29	13.265	13.24	13.125	13.178	13.22	13.24	13.25	13.26	13.27	13.283	13.797	14.06	13.857	14.07	14.29	14.505	14.725	14.935	16.27	12.447	10.425	10.622	16.22	13.773	13.918	14	14.115	14.248	14.32	14.295	16.22	15.995	14.918	14.627	14.35	14.543	15.227	17.302	20.295	22.262	22.648	22.823	22.995	23.155	23.26	23.355	23.45	23.55	23.645	23.74	23.84	23.933	24.023	24.02	24.017	24.008	23.992	23.975	23.957	24.047	24.3	24.37	24.413	24.35	24.27	24.19	24.115	24.035	23.955	23.875	23.775	23.615	23.455	23.313	23.25	23.2	23.145	23.095	23.045	22.99	22.942	22.93	22.927	22.922	22.835	22.688	22.538	22.387	22.238	22.087	21.94	21.79	21.73	21.727	21.72	21.718	21.718	21.74	21.805	21.892	21.983	22.065	22.115	22.128	22.09	22.045	21.995	21.825	21.625	21.425	21.233	21.05	20.955	20.9
17.992	18.185	17.953	17.66	17.633	17.602	17.465	17.305	17.135	16.98	16.98	16.975	16.565	16.405	16.015	15.447	14.965	14.495	14.26	14.123	14.033	13.957	13.893	13.813	13.697	13.598	13.52	13.455	13.367	13.26	13.242	13.29	13.277	13.27	13.31	13.33	13.16	13.09	13.235	13.35	13.36	13.32	13.28	13.242	13.22	13.178	13.113	13.175	13.2	13.207	13.217	13.227	13.238	13.791	14.06	13.775	13.995	14.215	14.43	14.633	14.822	15.012	16.27	11.134	10.411	10.999	16.22	13.845	13.975	14.107	14.235	14.245	14.225	16.22	16.22	16.063	14.707	14.27	14.213	14.398	14.742	16.07	18.99	21.823	22.735	22.913	23.087	23.225	23.328	23.425	23.52	23.62	23.715	23.813	23.91	24.017	24.133	24.16	24.163	24.145	24.133	24.115	24.2	24.36	24.425	24.49	24.515	24.44	24.36	24.285	24.205	24.125	24.045	23.95	23.79	23.633	23.475	23.367	23.315	23.265	23.215	23.16	23.11	23.067	23.065	23.065	23	22.852	22.703	22.552	22.405	22.255	22.105	21.955	21.805	21.762	21.76	21.753	21.75	21.765	21.81	21.898	21.985	22.073	22.155	22.19	22.163	22.117	22.075	21.997	21.805	21.605	21.407	21.223	21.082	21.025	20.973
18.22	18.427	18.21	17.87	17.635	17.602	17.47	17.302	17.13	16.955	16.835	16.835	16.492	16.578	16.175	15.595	15.027	14.547	14.25	14.105	13.963	13.863	13.785	13.72	13.7	13.625	13.56	13.49	13.348	13.248	13.265	13.22	13.303	13.297	13.25	13.268	13.17	13.133	13.255	13.367	13.36	13.318	13.275	13.235	13.2	13.172	13.11	13.125	13.155	13.165	13.175	13.185	13.205	13.786	14.06	13.703	13.918	14.133	14.328	14.518	14.707	14.898	15.069	16.27	10.492	10.546	16.37	16.37	14.008	14.107	14.193	14.172	14.152	14.135	14.123	16.22	16.22	14.915	14.31	14.295	14.273	14.438	15.127	17.6	20.85	22.698	23.008	23.163	23.295	23.398	23.492	23.59	23.69	23.785	23.905	24.052	24.18	24.212	24.238	24.265	24.275	24.273	24.32	24.418	24.483	24.55	24.617	24.61	24.53	24.455	24.375	24.295	24.215	24.122	23.965	23.805	23.645	23.497	23.435	23.385	23.33	23.28	23.225	23.205	23.205	23.16	23.02	22.87	22.72	22.57	22.42	22.27	22.12	21.97	21.828	21.795	21.79	21.788	21.788	21.82	21.898	21.988	22.075	22.155	22.185	22.195	22.185	22.145	22.102	21.975	21.775	21.582	21.398	21.225	21.15	21.095	21.043
18.448	18.66	18.47	18.13	17.788	17.6	17.47	17.297	17.125	16.955	16.78	16.695	16.55	16.753	16.337	15.755	15.168	14.613	14.242	14.095	13.95	13.803	13.693	13.648	13.715	13.685	13.6	13.488	13.325	13.235	13.262	13.242	13.23	13.29	13.262	13.268	13.255	13.215	13.27	13.377	13.35	13.31	13.27	13.23	13.19	13.152	13.13	13.078	13.115	13.125	13.135	13.152	13.215	13.78	14.06	13.623	13.832	14.023	14.213	14.408	14.605	14.795	14.963	16.52	16.52	10.472	11.024	12.66	16.37	14.2	14.227	14.223	14.217	14.213	14.21	16.22	15.62	16.305	15.242	14.342	14.287	14.215	14.445	14.755	16.4	19.608	22.405	23.093	23.238	23.367	23.465	23.563	23.663	23.797	23.948	24.093	24.225	24.285	24.31	24.332	24.36	24.383	24.395	24.475	24.54	24.61	24.675	24.735	24.7	24.625	24.545	24.465	24.385	24.293	24.14	23.98	23.82	23.665	23.552	23.5	23.45	23.395	23.352	23.345	23.32	23.185	23.035	22.885	22.735	22.585	22.435	22.288	22.137	21.988	21.852	21.828	21.823	21.82	21.837	21.902	21.992	22.078	22.152	22.175	22.198	22.207	22.205	22.172	22.122	21.955	21.758	21.573	21.387	21.275	21.22	21.168	21.113
18.672	18.887	18.73	18.39	18.045	17.91	17.648	17.457	17.277	17.095	16.913	16.74	16.725	16.925	16.5	15.915	15.33	14.748	14.307	14.137	13.985	13.845	13.697	13.652	13.755	13.72	13.633	13.49	13.39	13.242	13.195	13.245	13.248	13.26	13.28	13.295	13.315	13.305	13.307	13.385	13.35	13.31	13.27	13.23	13.19	13.15	13.11	13.07	13.07	13.085	13.1	13.16	13.23	13.81	14.06	13.582	13.785	13.99	14.195	14.393	14.568	14.705	14.85	15.025	16.52	10.899	10.523	11.46	16.37	14.332	14.357	14.352	14.35	14.35	14.315	14.255	16.22	16.22	16.608	15.615	14.443	14.297	14.508	14.682	14.793	15.53	18.438	21.707	23.183	23.315	23.438	23.547	23.688	23.825	23.965	24.105	24.235	24.345	24.413	24.44	24.462	24.453	24.375	24.465	24.595	24.665	24.73	24.8	24.848	24.793	24.715	24.635	24.555	24.465	24.315	24.155	23.995	23.835	23.688	23.617	23.565	23.515	23.485	23.473	23.35	23.2	23.05	22.9	22.753	22.602	22.453	22.302	22.152	22.005	21.88	21.86	21.855	21.858	21.907	21.992	22.082	22.148	22.17	22.195	22.223	22.223	22.215	22.2	22.12	21.93	21.747	21.56	21.407	21.345	21.293	21.238	21.183
18.92	19.113	18.99	18.65	19.087	19.705	19.063	18.517	18.215	18.023	17.832	17.642	17.445	17.245	16.835	16.36	15.9	15.44	15.14	14.97	14.76	14.445	14.113	14.088	13.912	13.627	13.6	13.62	13.502	13.28	13.137	13.175	13.223	13.258	13.287	13.313	13.34	13.36	13.36	13.39	13.35	13.31	13.27	13.23	13.19	13.15	13.11	13.07	13.035	13.047	13.105	13.188	13.265	13.817	13.893	13.595	13.803	14.002	14.178	14.32	14.455	14.595	14.732	14.905	15.03	16.52	10.443	10.995	12.355	16.37	14.488	14.495	14.49	14.47	14.412	14.33	14.355	16.22	15.178	16.765	15.977	14.585	14.49	14.592	14.688	14.675	15.063	17.225	20.85	23.122	23.425	23.56	23.695	23.835	23.975	24.11	24.245	24.355	24.46	24.54	24.547	24.475	24.392	24.365	24.54	24.705	24.79	24.858	24.922	24.955	24.885	24.805	24.725	24.637	24.49	24.33	24.17	24.01	23.852	23.735	23.685	23.637	23.617	23.515	23.365	23.218	23.067	22.918	22.767	22.62	22.47	22.32	22.17	22.02	21.9	21.89	21.89	21.915	21.997	22.085	22.142	22.163	22.192	22.223	22.245	22.235	22.223	22.22	22.108	21.92	21.735	21.558	21.47	21.418	21.363	21.308	21.255
19.367	19.372	19.365	19.788	20.238	20.655	20.56	20.01	19.457	19.038	18.765	18.46	18.135	17.852	17.753	17.27	16.8	16.378	16.128	15.805	15.425	15.045	14.685	14.617	14.197	13.775	13.568	13.672	13.565	13.32	13.12	13.152	13.293	13.315	13.335	13.36	13.38	13.405	13.42	13.402	13.37	13.33	13.29	13.25	13.21	13.17	13.13	13.09	13.05	13.065	13.15	13.23	13.31	13.82	13.81	13.613	13.79	13.935	14.07	14.205	14.345	14.48	14.62	14.785	14.965	16.52	10.86	10.545	11.388	16.37	14.643	14.64	14.627	14.572	14.5	14.53	14.47	14.297	14.133	14.78	16.628	16.355	14.832	14.455	14.44	14.415	14.605	14.963	16.955	20.5	23.21	23.575	23.705	23.845	23.98	24.12	24.253	24.365	24.47	24.59	24.578	24.495	24.415	24.328	24.422	24.613	24.793	24.913	24.98	25.047	25.052	24.975	24.895	24.81	24.665	24.505	24.345	24.185	24.025	23.872	23.802	23.765	23.683	23.532	23.383	23.233	23.085	22.935	22.785	22.635	22.485	22.335	22.185	22.038	21.93	21.922	21.933	22.003	22.087	22.135	22.16	22.188	22.218	22.247	22.26	22.247	22.238	22.205	22.095	21.91	21.725	21.595	21.543	21.488	21.433	21.38	21.325
20.087	19.97	20.24	20.71	21.172	21.567	21.245	20.755	20.26	19.77	19.355	19.02	18.7	18.413	18.565	18.218	17.73	17.245	16.8	16.405	16.025	15.645	15.268	15.1	14.57	13.955	13.6	13.627	13.57	13.26	13.127	13.26	13.405	13.425	13.447	13.47	13.492	13.508	13.473	13.445	13.425	13.398	13.36	13.32	13.28	13.24	13.2	13.16	13.12	13.09	13.178	13.275	13.36	13.82	13.83	13.547	13.685	13.822	13.957	14.095	14.23	14.365	14.505	14.665	14.845	15.027	16.52	10.53	10.816	12.098	16.37	14.787	14.738	14.678	14.68	14.578	14.432	14.277	14.107	14.037	14.582	16.558	16.672	15.27	14.42	14.422	14.678	14.96	15.19	17.38	21.168	23.52	23.72	23.852	23.99	24.125	24.262	24.375	24.505	24.668	24.622	24.517	24.435	24.348	24.32	24.495	24.685	24.872	25.027	25.105	25.168	25.145	25.065	24.98	24.835	24.68	24.52	24.36	24.2	24.043	23.922	23.845	23.698	23.55	23.4	23.25	23.1	22.95	22.8	22.65	22.5	22.352	22.203	22.052	21.96	21.96	22.003	22.087	22.13	22.157	22.185	22.215	22.245	22.273	22.273	22.262	22.218	22.137	22.073	21.9	21.733	21.665	21.613	21.558	21.505	21.45	21.395
20.77	20.7	21.085	21.558	21.992	22.06	21.88	21.43	20.935	20.45	19.988	19.593	19.265	18.968	19.185	19.17	18.68	18.17	17.655	17.145	16.67	16.245	15.865	15.557	14.947	14.225	13.738	13.557	13.568	13.367	13.24	13.375	13.515	13.535	13.557	13.58	13.592	13.553	13.51	13.485	13.465	13.445	13.425	13.395	13.355	13.315	13.275	13.235	13.195	13.155	13.17	13.29	13.4	13.815	13.821	13.467	13.58	13.707	13.845	13.982	14.115	14.255	14.39	14.55	14.725	14.915	15.1	17.1	10.53	11.095	16.37	16.37	14.845	14.807	14.705	14.59	14.432	14.242	14.078	14.078	14.168	14.585	16.698	16.99	15.56	14.467	14.66	14.848	15.1	15.512	18.16	21.965	23.745	23.878	24.008	24.14	24.273	24.422	24.6	24.742	24.672	24.565	24.46	24.37	24.288	24.378	24.565	24.755	24.945	25.122	25.23	25.282	25.235	25.155	25.015	24.855	24.695	24.535	24.375	24.215	24.047	23.883	23.72	23.565	23.415	23.265	23.115	22.968	22.817	22.668	22.517	22.367	22.22	22.07	21.992	22.012	22.087	22.122	22.152	22.183	22.212	22.242	22.273	22.295	22.288	22.25	22.165	22.078	22.02	21.892	21.793	21.738	21.683	21.628	21.575	21.523	21.468
21.44	21.468	21.93	22.365	22.462	22.34	22.21	22.045	21.615	21.125	20.665	20.212	19.83	19.525	19.735	20.003	19.62	19.105	18.595	18.082	17.565	17.025	16.495	15.977	15.238	14.482	13.977	13.735	13.66	13.645	13.443	13.492	13.625	13.645	13.67	13.675	13.635	13.588	13.545	13.525	13.505	13.485	13.465	13.445	13.422	13.39	13.35	13.31	13.27	13.23	13.197	13.277	13.4	13.814	13.819	13.46	13.555	13.65	13.752	13.867	14.005	14.14	14.275	14.43	14.613	14.797	15.152	14.465	17.1	10.827	11.768	16.73	16.37	14.852	14.758	14.585	14.395	14.207	14.065	14.125	14.217	14.305	14.595	16.663	17.2	16.038	14.623	14.713	14.92	15.205	15.787	19	22.615	23.885	24.003	24.108	24.21	24.375	24.617	24.775	24.718	24.613	24.505	24.398	24.305	24.277	24.45	24.637	24.828	25.015	25.205	25.345	25.392	25.325	25.185	25.025	24.867	24.712	24.555	24.398	24.15	23.992	23.825	23.652	23.48	23.31	23.148	22.988	22.832	22.685	22.535	22.385	22.235	22.085	22.03	22.085	22.12	22.15	22.18	22.207	22.238	22.267	22.297	22.313	22.28	22.198	22.113	22.025	21.95	21.902	21.863	21.808	21.755	21.7	21.645	21.593	21.538
22.105	22.3	22.738	22.843	22.75	22.62	22.49	22.365	22.203	21.8	21.337	20.887	20.44	20.08	20.282	20.363	19.933	19.348	18.777	18.21	17.642	17.073	16.508	15.918	15.115	14.46	14.095	13.94	13.877	13.828	13.717	13.62	13.735	13.755	13.758	13.717	13.668	13.62	13.585	13.565	13.545	13.525	13.505	13.485	13.465	13.445	13.418	13.38	13.34	13.3	13.26	13.27	13.385	13.813	13.816	13.44	13.54	13.637	13.73	13.83	13.928	14.04	14.165	14.315	14.578	15.055	15.578	15.985	17.1	10.884	11.062	12.332	16.73	14.915	14.735	14.547	14.36	14.172	14.085	14.17	14.23	14.268	14.297	14.46	16.288	17.395	16.42	14.723	14.713	14.998	15.043	16.06	18.79	22.84	23.91	24.01	24.117	24.207	24.355	24.555	24.622	24.587	24.527	24.448	24.343	24.245	24.332	24.52	24.71	24.9	25.087	25.275	25.45	25.49	25.365	25.205	25.045	24.892	24.735	24.563	24.23	24.098	23.948	23.775	23.605	23.433	23.26	23.087	22.915	22.745	22.575	22.413	22.253	22.102	22.085	22.117	22.148	22.175	22.205	22.235	22.265	22.295	22.325	22.313	22.233	22.148	22.06	21.973	21.887	21.845	21.828	21.817	21.797	21.767	21.718	21.663	21.608
22.797	23.11	23.215	23.15	23.03	22.9	22.77	22.645	22.515	22.363	21.968	21.515	21.065	20.622	20.413	20.14	19.797	19.205	18.587	18.003	17.433	16.867	16.323	15.727	15.005	14.44	14.25	14.148	14.065	13.982	13.912	13.805	13.845	13.838	13.797	13.748	13.7	13.652	13.625	13.605	13.585	13.565	13.545	13.525	13.505	13.485	13.465	13.445	13.418	13.375	13.335	13.3	13.375	13.819	13.813	13.422	13.52	13.62	13.72	13.813	13.91	14.012	14.115	14.248	14.61	15.002	15.398	15.793	16.185	17.1	10.669	11.465	13.065	16.67	14.787	14.568	14.357	14.148	14.113	14.16	14.203	14.248	14.295	14.345	14.395	16.075	17.665	16.692	14.797	14.67	14.822	15.045	16.602	20.255	23.365	23.91	24.012	24.045	24.12	24.253	24.42	24.42	24.387	24.352	24.32	24.258	24.233	24.405	24.595	24.797	25.008	25.218	25.425	25.598	25.543	25.385	25.233	25.075	24.922	24.683	24.31	24.18	24.073	23.902	23.73	23.558	23.385	23.212	23.04	22.867	22.695	22.525	22.352	22.175	22.113	22.142	22.172	22.203	22.233	22.262	22.293	22.323	22.34	22.275	22.192	22.115	22.032	21.955	21.88	21.828	21.813	21.782	21.753	21.73	21.712	21.695	21.668
23.517	23.59	23.545	23.435	23.31	23.18	23.05	22.922	22.793	22.585	22.195	21.74	21.29	20.84	20.31	19.892	19.62	19.08	18.483	17.858	17.238	16.657	16.163	15.557	14.94	14.7	14.467	14.313	14.145	13.963	13.935	13.928	13.92	13.877	13.828	13.78	13.732	13.69	13.665	13.645	13.625	13.605	13.585	13.565	13.545	13.525	13.505	13.485	13.465	13.443	13.41	13.37	13.373	13.811	13.827	13.41	13.508	13.61	13.71	13.815	13.92	14.02	14.123	14.185	14.428	14.815	15.2	15.59	15.982	17.1	17.1	11.012	11.748	16.67	14.982	14.748	14.51	14.27	14.133	14.175	14.225	14.273	14.32	14.363	14.355	14.345	16.09	17.738	16.86	14.85	14.707	14.93	15.418	17.477	20.04	23.5	23.867	23.89	23.962	24.038	24.152	24.253	24.218	24.185	24.155	24.145	24.235	24.558	24.855	25.128	25.352	25.56	25.66	25.695	25.703	25.573	25.415	25.262	25.1	24.765	24.385	24.25	24.168	24.025	23.855	23.683	23.51	23.337	23.165	22.995	22.823	22.648	22.477	22.29	22.148	22.17	22.2	22.227	22.258	22.288	22.317	22.345	22.313	22.25	22.195	22.137	22.063	21.985	21.907	21.837	21.823	21.793	21.762	21.733	21.703	21.672	21.642
23.93	23.925	23.84	23.715	23.587	23.457	23.325	23.192	23.038	22.707	22.328	21.88	21.43	20.98	20.503	19.81	19.375	19.012	18.325	17.762	17.145	16.52	16.023	15.595	15.283	15.053	14.785	14.49	14.238	14.005	13.84	13.842	13.928	13.91	13.86	13.813	13.768	13.725	13.705	13.685	13.665	13.645	13.625	13.605	13.585	13.565	13.545	13.525	13.505	13.485	13.465	13.443	13.405	13.81	13.81	13.42	13.52	13.623	13.727	13.83	13.93	14.037	14.125	14.175	14.277	14.635	15.023	15.418	15.832	16.198	17.1	10.71	11.29	12.338	16.67	14.91	14.67	14.435	14.235	14.197	14.245	14.295	14.342	14.37	14.355	14.365	14.39	16.04	17.83	16.883	14.82	14.745	14.998	15.265	16.078	20.555	23.51	23.733	23.808	23.88	23.955	24.043	24.055	24.055	24.08	24.113	24.315	24.66	25	25.343	25.64	25.705	25.74	25.773	25.805	25.755	25.602	25.445	25.24	24.85	24.465	24.33	24.25	24.148	23.977	23.805	23.635	23.462	23.29	23.117	22.945	22.775	22.6	22.405	22.22	22.198	22.227	22.255	22.285	22.315	22.345	22.33	22.265	22.205	22.145	22.08	22.035	21.997	21.935	21.86	21.828	21.805	21.777	21.747	21.718	21.688	21.657
24.14	24.24	24.12	23.988	23.858	23.727	23.598	23.462	23.188	22.817	22.448	22.02	21.57	21.12	20.66	20.07	19.308	18.855	18.26	17.582	17.075	16.683	16.32	16.003	15.685	15.367	15.04	14.74	14.475	14.21	13.938	13.805	13.895	13.943	13.893	13.848	13.797	13.765	13.745	13.725	13.705	13.685	13.665	13.645	13.625	13.605	13.585	13.565	13.545	13.525	13.505	13.485	13.467	13.818	13.824	13.447	13.543	13.64	13.74	13.842	13.947	14.05	14.117	14.162	14.21	14.457	14.875	15.318	15.703	16.047	16.398	17.1	10.711	11.458	13.335	16.67	14.822	14.592	14.39	14.238	14.27	14.318	14.365	14.365	14.373	14.385	14.352	14.422	15.955	17.96	16.86	14.8	14.82	15.12	15.463	16.723	20.913	23.523	23.742	23.81	23.87	23.925	23.992	24.025	24.055	24.117	24.41	24.76	25.108	25.465	25.712	25.762	25.813	25.85	25.885	25.905	25.785	25.63	25.335	24.93	24.543	24.405	24.325	24.245	24.105	23.933	23.758	23.587	23.415	23.242	23.07	22.898	22.718	22.52	22.32	22.223	22.253	22.282	22.313	22.343	22.343	22.285	22.225	22.163	22.098	22.035	21.975	21.913	21.865	21.837	21.805	21.775	21.74	21.705	21.67	21.635	21.602
24.285	24.385	24.378	24.262	24.128	23.997	23.867	23.66	23.3	22.93	22.563	22.163	21.71	21.26	20.808	20.31	19.573	18.805	18.223	17.53	17.28	17.055	16.797	16.48	16.078	15.615	15.285	14.99	14.725	14.455	14.13	13.898	13.852	13.938	13.928	13.877	13.83	13.805	13.785	13.765	13.745	13.725	13.705	13.685	13.665	13.645	13.625	13.605	13.585	13.57	13.57	13.582	13.572	13.816	12.838	13.293	13.572	13.668	13.765	13.86	13.96	14.055	14.105	14.152	14.197	14.35	14.8	15.203	15.55	15.912	16.282	15.564	17.1	10.835	12.065	16.67	14.803	14.758	14.56	14.36	14.293	14.34	14.375	14.375	14.38	14.342	14.295	14.352	14.412	15.982	18.155	16.837	14.825	14.965	15.355	15.738	17.398	21.045	23.547	23.733	23.79	23.85	23.94	24.005	24.032	24.17	24.517	24.875	25.238	25.61	25.762	25.813	25.863	25.913	25.96	25.997	25.965	25.788	25.415	25.01	24.62	24.48	24.4	24.32	24.223	24.055	23.885	23.712	23.54	23.367	23.195	23.025	22.83	22.63	22.435	22.27	22.28	22.308	22.337	22.355	22.305	22.245	22.18	22.115	22.055	21.995	21.93	21.865	21.805	21.745	21.695	21.648	21.6	21.565	21.52	21.48	21.435
24.34	24.41	24.462	24.495	24.402	24.273	24.115	23.782	23.413	23.043	22.675	22.295	21.85	21.4	20.95	20.483	19.863	19.078	18.343	17.97	17.91	17.642	17.275	16.9	16.392	15.887	15.53	15.24	14.973	14.655	14.31	14.068	13.93	13.905	13.955	13.91	13.867	13.845	13.825	13.805	13.785	13.765	13.745	13.725	13.703	13.682	13.68	13.68	13.7	13.72	13.74	13.732	13.66	13.588	13.585	13.245	13.255	13.665	13.77	13.875	13.963	14.037	14.092	14.14	14.185	14.307	14.703	15.063	15.432	15.803	16.172	16.53	17.1	10.794	10.617	11.736	16.67	14.9	14.72	14.52	14.348	14.365	14.383	14.375	14.332	14.285	14.242	14.275	14.338	14.402	16.095	18.29	16.747	14.813	15.05	15.47	15.895	16.973	20.677	23.28	23.74	23.765	23.863	23.983	24.023	24.285	24.648	25.012	25.375	25.715	25.813	25.863	25.913	25.962	26.012	26.063	26.1	25.905	25.495	25.09	24.7	24.56	24.48	24.4	24.32	24.183	24.008	23.835	23.665	23.492	23.32	23.14	22.94	22.745	22.547	22.352	22.308	22.335	22.36	22.325	22.262	22.198	22.135	22.075	22.012	21.948	21.885	21.817	21.747	21.67	21.593	21.525	21.46	21.395	21.345	21.305	21.265
24.38	24.43	24.488	24.54	24.59	24.54	24.262	23.892	23.525	23.157	22.788	22.415	21.995	21.54	21.09	20.63	20.115	19.44	19	18.788	18.71	18.492	17.99	17.317	16.71	16.19	15.77	15.492	15.18	14.832	14.485	14.24	14.1	13.965	13.95	13.943	13.905	13.885	13.865	13.842	13.82	13.8	13.785	13.785	13.8	13.82	13.84	13.86	13.88	13.9	13.887	13.82	13.758	13.77	13.8	13.715	13.43	13.06	13.77	13.825	13.898	13.975	14.035	14.095	14.155	14.245	14.563	14.932	15.303	15.672	16.04	16.395	16.605	17.1	10.7	10.955	12.38	16.67	14.945	14.715	14.495	14.383	14.367	14.325	14.277	14.232	14.185	14.205	14.265	14.328	14.393	16.11	18.265	16.42	14.678	15.085	15.485	15.885	16.927	19.68	22.45	23.68	23.793	23.927	24.13	24.422	24.785	25.145	25.517	25.802	25.858	25.91	25.962	26.012	26.063	26.1	26.113	25.95	25.575	25.17	24.775	24.63	24.55	24.473	24.395	24.297	24.135	23.962	23.788	23.617	23.445	23.253	23.055	22.86	22.66	22.46	22.335	22.363	22.345	22.277	22.215	22.155	22.093	22.023	21.948	21.87	21.795	21.715	21.637	21.56	21.48	21.405	21.345	21.27	21.195	21.13	21.085
24.4	24.457	24.51	24.56	24.605	24.593	24.38	24.01	23.637	23.267	22.9	22.532	22.13	21.68	21.23	20.775	20.365	20.047	19.84	19.652	19.44	19.16	18.843	18.215	17.358	16.587	16.03	15.705	15.357	15.01	14.66	14.41	14.27	14.135	14.005	13.97	13.94	13.915	13.898	13.895	13.9	13.92	13.94	13.96	13.98	14	14.02	14.037	14.055	14.045	13.97	13.935	13.957	13.985	13.99	13.887	13.873	13.67	13.245	13.723	13.85	13.91	13.973	14.053	14.13	14.14	14.377	14.748	15.117	15.482	15.838	16.108	16.36	16.183	17.1	10.707	11.364	16.67	16.97	14.975	14.74	14.46	14.325	14.277	14.232	14.185	14.143	14.148	14.203	14.258	14.32	14.385	16.262	18.435	15.9	14.665	15.065	15.465	15.867	17.885	20.578	22.7	23.652	23.933	24.275	24.573	24.918	25.285	25.66	25.858	25.907	25.957	26.008	26.043	26.055	26.055	26.023	25.84	25.645	25.25	24.855	24.71	24.63	24.55	24.47	24.39	24.258	24.085	23.915	23.742	23.563	23.365	23.17	22.97	22.773	22.575	22.395	22.358	22.293	22.223	22.15	22.073	21.995	21.918	21.845	21.765	21.69	21.61	21.535	21.462	21.385	21.305	21.242	21.177	21.093	21.008	20.93
24.413	24.457	24.495	24.532	24.56	24.477	24.355	24.16	23.775	23.392	23.012	22.642	22.26	21.828	21.39	21.04	20.85	20.703	20.552	20.317	20.045	19.77	19.48	19.035	18.192	17.28	16.385	15.887	15.535	15.185	14.84	14.58	14.443	14.305	14.168	14.04	14.005	14.02	14.04	14.06	14.075	14.095	14.115	14.133	14.15	14.17	14.19	14.21	14.203	14.135	14.117	14.145	14.172	14.205	14.15	14.095	14.063	13.988	13.56	13.623	13.795	13.88	13.98	14.053	14.06	14.06	14.188	14.557	14.922	15.277	15.543	15.797	16.052	16.308	17.1	10.666	10.822	12.027	16.97	15.203	14.99	14.605	14.33	14.252	14.205	14.165	14.197	14.175	14.217	14.262	14.307	14.352	14.4	16.535	18.605	15.363	14.645	15.045	15.438	17.012	19.535	20.802	21.055	22.727	24.315	24.74	25.058	25.42	25.788	25.907	25.957	25.988	25.995	25.995	25.995	25.988	25.915	25.68	25.58	25.33	24.933	24.785	24.705	24.628	24.55	24.47	24.375	24.21	24.038	23.865	23.677	23.48	23.28	23.082	22.885	22.692	22.497	22.32	22.23	22.157	22.08	22.008	21.933	21.858	21.782	21.707	21.633	21.558	21.483	21.407	21.332	21.255	21.165	21.11	21.025	20.935	20.848
24.383	24.42	24.46	24.5	24.465	24.358	24.198	24.113	23.927	23.565	23.17	22.777	22.39	22.012	21.758	21.61	21.47	21.325	21.133	20.863	20.552	20.168	19.71	19.26	18.595	17.683	16.775	16.142	15.732	15.363	15.015	14.75	14.613	14.477	14.342	14.235	14.2	14.19	14.21	14.23	14.25	14.27	14.29	14.31	14.33	14.35	14.37	14.355	14.303	14.305	14.332	14.36	14.39	14.408	14.32	14.303	14.235	14.158	14.037	13.445	13.81	13.905	13.973	13.98	13.98	13.985	14.04	14.363	14.715	14.98	15.235	15.492	15.76	16.035	16.315	17.1	10.529	11.098	12.78	16.97	15.185	14.765	14.443	14.242	14.19	14.248	14.273	14.217	14.25	14.295	14.34	14.385	14.425	14.43	16.915	18.75	15.395	14.62	15.008	16.135	17.76	17.995	18.11	18.582	21.218	23.975	25.242	25.587	25.887	25.933	25.935	25.935	25.935	25.93	25.925	25.925	25.785	25.6	25.422	25.325	25.01	24.86	24.78	24.7	24.62	24.54	24.462	24.335	24.165	23.988	23.79	23.59	23.395	23.203	23.015	22.835	22.62	22.39	22.195	22.11	22.032	21.96	21.885	21.81	21.735	21.66	21.585	21.51	21.435	21.36	21.288	21.2	21.098	21.03	20.96	20.872	20.785
24.345	24.39	24.427	24.435	24.337	24.235	24.047	23.973	23.875	23.7	23.345	22.97	22.637	22.375	22.253	22.177	22.078	21.933	21.605	21.183	20.735	20.282	19.83	19.383	18.898	18.087	17.185	16.42	16.005	15.592	15.197	14.92	14.79	14.662	14.54	14.47	14.44	14.405	14.393	14.41	14.43	14.45	14.47	14.49	14.51	14.53	14.515	14.475	14.492	14.52	14.55	14.578	14.605	14.585	14.525	14.48	14.405	14.29	14.143	13.658	13.822	13.895	13.902	13.905	13.91	13.91	13.912	14.15	14.428	14.697	14.975	15.255	15.535	15.815	16.1	15.55	17.1	10.822	11.745	16.97	15.235	15.027	14.592	14.335	14.283	14.363	14.328	14.262	14.283	14.33	14.373	14.42	14.443	14.445	14.445	17.323	18.99	15.7	14.582	15.08	15.547	16.045	16.532	16.813	19.23	22.152	24.477	25.575	26.183	26.238	26.135	26.063	26.008	25.957	25.907	25.85	25.75	25.652	25.46	25.25	25.067	24.94	24.86	24.78	24.7	24.62	24.54	24.45	24.288	24.1	23.902	23.712	23.525	23.345	23.165	22.975	22.74	22.505	22.27	22.073	21.988	21.91	21.837	21.762	21.688	21.613	21.538	21.462	21.387	21.313	21.235	21.14	21.04	20.953	20.895	20.808	20.72
24.267	24.35	24.385	24.32	24.215	24.108	23.902	23.837	23.705	23.683	23.585	23.3	23.047	22.808	22.695	22.615	22.415	22.067	21.77	21.392	20.95	20.503	20.058	19.61	19.165	18.492	17.598	16.753	16.28	15.877	15.477	15.125	14.982	14.86	14.755	14.71	14.68	14.645	14.61	14.592	14.605	14.625	14.645	14.66	14.68	14.672	14.655	14.68	14.707	14.738	14.765	14.793	14.822	14.758	14.723	14.652	14.543	14.398	14.25	14.045	13.602	13.87	13.875	13.885	13.89	13.898	13.92	14.065	14.297	14.555	14.838	15.125	15.408	15.695	15.977	16.262	17.1	17.1	11.053	12.443	16.97	15.43	14.93	14.512	14.41	14.45	14.383	14.313	14.318	14.36	14.408	14.447	14.455	14.455	14.455	14.63	18.247	19.297	16.17	14.533	15.015	15.432	15.61	15.75	17.77	19.925	22.117	24.512	25.723	26.495	26.7	26.55	26.387	26.225	26.078	25.93	25.795	25.685	25.563	25.395	25.22	25.093	24.99	24.892	24.802	24.712	24.622	24.54	24.407	24.22	24.04	23.86	23.68	23.5	23.32	23.1	22.86	22.62	22.39	22.15	21.953	21.863	21.79	21.712	21.64	21.565	21.49	21.415	21.34	21.265	21.18	21.08	20.98	20.88	20.823	20.742	20.65
24.18	24.293	24.297	24.195	24.09	23.985	23.795	23.66	23.66	23.617	23.608	23.555	23.4	23.24	23.02	22.675	22.288	21.905	21.573	21.36	21.11	20.747	20.3	19.858	19.41	18.84	18.015	17.163	16.625	16.233	15.773	15.383	15.21	15.063	14.988	14.95	14.92	14.885	14.85	14.82	14.79	14.8	14.82	14.84	14.835	14.84	14.867	14.895	14.922	14.95	14.98	15.008	15.012	14.96	14.898	14.795	14.65	14.498	14.335	14.17	13.572	13.935	13.94	13.953	13.97	13.99	14.023	14.215	14.415	14.62	14.822	15.057	15.315	15.602	15.885	16.17	16.455	17.1	10.521	11.5	13.245	16.97	15.732	15.188	14.533	14.508	14.438	14.365	14.35	14.393	14.44	14.465	14.465	14.465	14.465	14.465	14.865	18.617	19.308	16.788	14.408	14.598	14.82	15.075	15.563	16.37	18.095	20.973	24.313	25.413	26.03	26.425	26.39	26.313	26.21	26.05	25.727	25.532	25.405	25.345	25.422	25.35	25.218	25.115	25.015	24.915	24.815	24.715	24.578	24.372	24.19	24.01	23.83	23.65	23.457	23.22	22.98	22.74	22.505	22.27	22.03	21.832	21.74	21.668	21.593	21.517	21.442	21.367	21.293	21.215	21.12	21.02	20.92	20.82	20.738	20.675	20.58
24.035	24.067	23.988	23.81	23.733	23.715	23.688	23.55	23.53	23.468	23.413	23.365	23.313	23.14	22.885	22.517	22.135	21.747	21.367	21.1	20.895	20.695	20.453	20.1	19.655	19.137	18.448	17.705	17.003	16.582	15.992	15.65	15.473	15.35	15.273	15.223	15.18	15.137	15.098	15.06	15.025	14.995	15	15.008	15.027	15.055	15.082	15.11	15.14	15.168	15.195	15.225	15.195	15.143	15.043	14.902	14.75	14.58	14.415	14.25	13.895	13.752	14.02	14.05	14.07	14.057	14.162	14.365	14.565	14.768	14.97	15.172	15.375	15.578	15.818	16.078	16.363	16.154	17.1	10.661	12.018	13.94	16.97	17.36	14.742	14.563	14.492	14.42	14.38	14.428	14.467	14.475	14.475	14.475	14.477	14.492	14.537	15.165	18.817	19.35	17.955	14.713	14.46	14.793	15.255	15.63	16.352	18.192	20.655	22.945	24.648	25.652	26.523	26.44	26.328	25.995	25.503	25.275	25.15	25.195	25.32	25.445	25.457	25.345	25.24	25.14	25.04	24.935	24.802	24.573	24.348	24.16	23.98	23.797	23.58	23.34	23.1	22.86	22.622	22.39	22.15	21.91	21.707	21.62	21.543	21.47	21.395	21.32	21.245	21.16	21.06	20.96	20.86	20.758	20.655	20.598	20.515
23.733	23.76	23.692	23.485	23.288	23.22	23.492	23.418	23.36	23.315	23.267	23.215	23.03	22.76	22.538	22.335	21.977	21.595	21.207	20.852	20.635	20.435	20.225	20.025	19.795	19.407	18.767	18.105	17.43	16.83	16.21	15.912	15.793	15.755	15.645	15.572	15.515	15.465	15.42	15.375	15.325	15.28	15.225	15.22	15.242	15.27	15.3	15.328	15.355	15.383	15.41	15.43	15.383	15.295	15.152	14.995	14.828	14.66	14.505	14.345	14.175	13.64	14.12	14.15	14.16	14.12	14.31	14.515	14.715	14.918	15.12	15.32	15.525	15.725	15.925	16.13	16.325	16.364	17.1	10.283	11.081	12.557	16.97	16.128	17.36	14.613	14.545	14.475	14.425	14.46	14.485	14.485	14.485	14.495	14.505	14.545	14.578	14.63	15.45	18.99	19.29	18.935	15.675	15.357	16.508	17.01	16.698	17.883	19.54	21.595	23.808	25.742	26.473	26.47	25.285	25.633	25.293	25.015	24.953	25.065	25.185	25.308	25.43	25.525	25.475	25.37	25.267	25.148	25.023	24.81	24.563	24.328	24.135	23.93	23.695	23.46	23.22	22.98	22.74	22.508	22.27	22.03	21.79	21.585	21.497	21.422	21.348	21.273	21.195	21.1	21	20.9	20.797	20.69	20.587	20.515	20.445
23.427	23.453	23.39	23.203	23.15	23.145	23.332	23.265	23.215	23.172	23.113	22.92	22.65	22.38	22.13	21.96	21.77	21.442	21.055	20.67	20.375	20.172	19.965	19.765	19.555	19.305	19.198	18.575	18.003	17.332	16.442	16.23	16.2	16.163	16.038	15.947	15.877	15.81	15.758	15.713	15.665	15.605	15.525	15.482	15.48	15.492	15.515	15.543	15.57	15.6	15.627	15.625	15.547	15.408	15.24	15.078	14.915	14.755	14.605	14.445	14.275	13.675	14.22	14.25	14.178	14.26	14.46	14.662	14.865	15.065	15.27	15.47	15.672	15.842	16.025	16.19	16.328	16.378	16.245	17.1	10.466	11.084	11.578	12.367	13.315	16.1	14.595	14.53	14.467	14.488	14.495	14.5	14.51	14.52	14.547	14.575	14.61	14.67	14.75	15.65	19.152	19.635	19.677	18.913	18.825	18.317	17.782	18.095	20.265	22.442	24.602	26.38	26.47	24.825	22.668	24.29	25.08	24.76	24.805	24.927	25.052	25.175	25.295	25.418	25.543	25.58	25.483	25.36	25.235	25.043	24.8	24.517	24.23	24.012	23.802	23.58	23.34	23.1	22.86	22.625	22.39	22.15	21.91	21.67	21.465	21.372	21.3	21.225	21.14	21.04	20.94	20.837	20.73	20.628	20.52	20.427	20.37
23.12	23.145	23.11	23.093	23.08	23.045	23.183	23.12	23.075	23.01	22.815	22.543	22.27	22	21.738	21.552	21.383	21.203	20.902	20.515	20.148	19.91	19.705	19.505	19.295	18.895	18.973	19.098	18.668	18.51	17.16	16.635	16.62	16.573	16.435	16.325	16.253	16.183	16.11	16.05	15.992	15.915	15.832	15.765	15.76	15.76	15.755	15.762	15.787	15.815	15.842	15.797	15.65	15.488	15.33	15.175	15.015	14.86	14.705	14.545	14.373	14.1	13.78	14.32	14.217	14.408	14.61	14.81	15.015	15.213	15.373	15.523	15.678	15.852	16.035	16.203	16.25	16.29	16.33	15.44	17.1	11.076	11.386	11.423	11.418	11.934	16.1	14.54	14.512	14.508	14.515	14.525	14.535	14.555	14.578	14.607	14.65	14.71	14.79	14.867	16.017	19.59	19.758	19.765	19.84	19.505	18.94	18.223	19.985	22.94	25.315	26.47	25.215	20.727	21.442	22.345	23.672	24.525	24.66	24.78	24.895	25.012	25.122	25.238	25.35	25.465	25.552	25.48	25.35	25.043	24.672	24.332	24.047	23.855	23.675	23.495	23.325	23.14	22.933	22.725	22.51	22.27	22.03	21.79	21.555	21.348	21.253	21.175	21.08	20.98	20.878	20.77	20.668	20.56	20.46	20.355	20.293
22.845	22.865	22.948	23.003	22.98	22.945	23.052	22.975	22.913	22.705	22.435	22.165	21.895	21.625	21.352	21.142	20.977	20.808	20.635	20.36	19.975	19.652	19.445	19.245	19.01	18.517	18.223	18.965	19.605	20.1	18.615	17.168	17.03	16.975	16.835	16.705	16.628	16.555	16.485	16.438	16.335	16.215	16.135	16.058	16.035	16.03	16.03	16.03	16.03	16.035	16.038	15.905	15.745	15.585	15.435	15.275	15.115	14.965	14.813	14.662	14.475	14.293	13.675	14.287	14.355	14.555	14.748	14.898	15.023	15.168	15.34	15.525	15.685	15.898	16.07	16.12	16.163	16.205	16.25	16.282	15.913	17.1	11.099	11.372	11.565	11.571	11.398	16.1	16.1	16.1	14.543	14.55	14.563	14.58	14.6	14.64	14.685	14.75	14.83	14.873	14.87	16.055	19.692	19.925	19.973	20.093	19.93	19.2	17.628	20.765	25.192	26.47	24.688	19.723	20.68	21.468	22.4	23.663	24.258	24.555	24.668	24.782	24.895	25.008	25.122	25.24	25.36	25.418	25.113	24.733	24.41	24.113	23.843	23.655	23.475	23.3	23.125	22.945	22.765	22.593	22.415	22.235	22.055	21.858	21.648	21.438	21.223	21.122	21.02	20.92	20.815	20.71	20.61	20.51	20.405	20.305	20.223
